ncols         258
nrows         43
xllcorner     549290.276
yllcorner     3505443.7801
cellsize      50
NODATA_value  -9999
-9999 -9999 -9999 -9999 -9999 50.90973 47.8405 48.01471 48.43482 48.29391 44.63834 44.05761 43.84517 43.2923 42.54351 42.67692 42.84513 42.99365 43.05039 43.03397 43.34769 43.75175 44.59216 44.48631 43.78972 42.86743 40.62679 39.50626 37.69234 35.90588 35.88424 35.88309 35.88299 35.88307 40.18516 41.018 41.74894 42.1647 40.72919 39.54761 38.14879 36.68615 36.67151 37.9706 39.26509 40.43515 38.29153 36.82207 35.98384 36.12453 39.03893 40.80138 43.12021 41.2755 37.34744 36.83154 38.1578 39.75706 39.73741 37.92271 35.9412 34.10559 34.06184 34.06184 34.79983 36.15947 37.26068 37.17258 36.86203 37.25388 39.54358 40.3118 40.21969 38.93549 36.01434 36.30003 37.71313 39.272 41.19733 40.9814 41.22131 39.61124 37.44081 40.84542 45.10807 40.16347 38.75697 38.26305 37.82146 37.39071 36.50006 36.05505 35.63255 35.44937 36.74539 37.27153 38.26017 39.56416 42.03558 40.29567 39.54698 36.07585 29.86524 29.2683 29.45226 31.02896 35.41217 37.3602 38.43758 36.60554 32.40729 30.35105 29.27436 28.17253 26.43806 27.7611 29.21566 30.78698 34.15231 35.53203 35.7248 33.81502 30.33443 29.53378 27.83993 26.6592 24.60264 23.54465 22.72397 22.85522 24.98343 28.02095 30.54805 31.35216 30.00216 28.11403 29.11267 30.48422 32.89431 33.01692 32.11119 31.42848 30.34885 27.23645 26.29174 25.67832 24.59561 24.37505 24.61013 25.4405 28.79575 30.27899 31.22563 31.63068 31.75061 32.12515 32.62261 32.52367 31.51579 30.66472 29.9368 27.44611 22.82732 22.96945 25.75233 28.70818 33.34611 31.13612 28.08884 22.42927 21.33356 23.28937 25.72374 28.12132 31.57332 33.05622 33.30745 32.89911 30.86314 29.53463 25.98076 22.42623 18.31536 17.37115 16.5118 15.74703 14.31901 13.57143 12.80725 11.41382 11.25092 11.0632 10.86841 10.94443 11.81568 12.28372 12.76488 13.08656 15.73786 16.70237 16.88685 16.58401 15.56985 17.04256 19.64811 18.99848 16.06808 14.60224 13.13669 11.6094 13.55832 15.18672 16.81776 18.45184 20.92695 19.15648 16.98067 14.78163 11.9382 13.81103 15.39914 16.6779 18.29993 17.30013 14.2987 14.92426 19.78826 20.78267 21.76174 22.81528 20.96756 19.18642 18.57479 20.00238 20.31947 19.60221 19.10536 20.29332 25.83562 28.44569 29.91922 29.34415 -9999 -9999 -9999 -9999 -9999 -9999 -9999 -9999 -9999 -9999 -9999 -9999 -9999 -9999 -9999 -9999
-9999 -9999 -9999 -9999 -9999 51.84727 48.88001 47.69826 46.71918 46.45096 42.8099 42.64553 42.77131 42.59573 42.68262 42.85416 43.1151 43.18293 42.70646 42.4277 42.48409 42.73573 43.38361 43.66749 43.56383 43.11686 41.09452 40.34367 39.08208 37.24184 36.17726 35.74253 35.85133 36.58556 39.33061 40.16439 40.5762 41.06664 40.984 39.99055 38.4441 36.93246 36.011 37.0413 37.96912 38.73814 37.1345 35.86677 35.18616 35.77528 39.33788 41.00022 42.57803 41.06985 37.55136 36.59453 37.95531 39.42786 40.22181 38.678 36.27945 34.07536 34.06184 34.06321 34.27348 35.03598 35.77522 35.6796 35.64817 36.33109 38.81895 39.99687 39.93061 38.51749 35.61574 35.54288 36.74029 38.03947 39.46728 38.47196 37.93233 36.64467 37.68451 40.86831 44.71498 41.10665 38.92432 38.43131 38.00862 37.60409 36.74423 36.40464 36.18495 36.32022 37.34515 38.08557 38.98497 40.78704 39.05725 37.68287 36.64367 34.75179 30.14577 29.0031 28.73079 30.02492 34.15376 36.13668 37.96682 37.32724 33.3838 31.49129 30.0183 28.92668 26.27679 26.89841 28.43411 30.01105 32.86843 34.53339 36.28159 35.14479 32.12448 31.1309 29.46169 28.55237 25.96082 24.42909 23.03892 23.37167 26.33163 28.92018 30.48445 30.87078 28.28531 27.7396 30.04213 30.95411 32.99049 32.68026 31.41953 30.13202 29.4288 27.52901 26.23748 25.56043 24.47041 24.21815 24.44316 25.26617 28.74051 30.33202 31.08761 30.88346 30.16608 30.90509 32.11024 31.87699 30.56196 30.37301 29.92681 26.94547 22.21228 22.27796 25.13769 27.8517 32.60481 31.7325 29.68056 25.98363 21.83838 23.19318 25.81743 28.64906 31.7264 32.25482 31.65595 31.66765 30.03322 28.79425 26.42808 23.56012 19.0663 18.16201 17.27833 16.39938 14.69191 13.82981 12.88134 11.64499 11.30991 11.30991 11.05314 10.86953 11.41131 11.82126 12.23788 12.87707 14.92791 15.37212 15.56123 15.6576 15.94193 16.83639 17.67114 17.16616 14.74372 13.55803 12.41522 11.32736 13.19847 14.81246 16.44047 18.09642 20.6653 19.36679 17.06229 14.86881 12.10641 13.025 14.10622 14.88834 15.09948 13.8485 14.89195 18.46143 20.99423 21.69523 21.93585 21.95245 19.58995 16.54314 15.28647 17.40643 17.96664 18.4326 19.85836 22.18502 27.31715 27.09079 26.8801 26.17569 25.75608 -9999 -9999 -9999 -9999 -9999 -9999 -9999 -9999 -9999 -9999 -9999 -9999 -9999 -9999 -9999
-9999 -9999 -9999 -9999 51.11225 51.72527 49.80267 49.11606 48.52743 47.30107 42.49253 42.49253 42.49253 42.49253 42.96508 43.46137 43.62497 43.49778 42.70211 42.03982 41.64596 41.69919 42.17407 42.49577 42.83505 43.11874 41.56141 40.89501 40.14529 38.68902 36.62309 35.81053 35.85546 36.43024 38.29477 39.13402 39.56281 39.98343 40.61378 40.03443 38.45354 36.8506 35.09241 35.59153 36.26579 36.81579 35.7619 34.29277 34.01363 35.02111 39.86676 41.04178 41.26728 40.48824 37.2049 36.43289 37.99126 39.5565 40.56012 39.7355 36.96824 34.12377 34.26758 34.27105 34.17528 34.3401 34.54469 34.27721 34.37437 35.3495 37.78854 38.60468 38.62105 37.73808 35.24459 34.94693 35.66681 36.7038 38.90327 35.92719 34.14023 33.50496 38.498 41.77847 43.65324 40.87074 38.90007 38.48982 38.13472 37.79283 37.0826 36.88444 36.8681 37.13155 38.05466 38.77871 39.67933 42.70832 38.47779 37.0421 35.73232 34.15889 30.33081 29.37248 28.0519 29.20249 33.11997 34.97635 36.67764 37.23423 34.39985 32.66155 31.1511 29.85159 26.78094 25.89144 27.33533 28.85015 31.26779 32.8834 34.95707 35.58014 33.4456 32.40503 31.42554 30.61393 27.10792 25.16233 23.47372 23.57291 26.50925 28.68353 30.21329 30.37289 26.50948 28.74866 30.37385 31.23409 32.71515 32.57663 31.59422 29.86336 27.76114 27.14884 26.03626 25.64331 24.47216 23.99418 24.03997 24.94035 28.55486 30.06965 30.21822 29.64607 29.06057 29.89997 32.20386 30.71429 27.79171 27.09924 26.03204 23.8002 21.12425 21.73065 24.28811 27.22364 31.79045 32.12868 30.38098 27.9713 22.04488 22.26965 24.90918 27.60054 30.83219 31.16122 29.86885 30.26055 29.91628 28.76223 26.74231 24.26991 19.78946 18.91108 17.98791 17.07317 15.19587 14.15138 12.92861 11.66295 11.30991 11.30991 11.13815 10.88695 10.99325 11.27649 11.75219 12.4422 14.06042 14.36606 14.61019 14.83261 15.48067 15.89871 15.80817 15.4598 13.66673 12.80516 12.0144 11.62633 12.84949 14.30748 15.90924 17.51299 20.15673 18.88948 16.87622 14.79714 12.15973 12.39436 13.09656 13.62706 13.99758 13.59532 17.60822 20.32255 21.28793 21.50898 21.31895 20.55672 16.49386 14.09337 14.08046 14.24256 19.54141 20.74797 22.6178 24.2552 25.26 24.54034 23.95496 23.55588 25.25073 -9999 -9999 -9999 -9999 -9999 -9999 -9999 -9999 -9999 -9999 -9999 -9999 -9999 -9999 -9999
-9999 -9999 -9999 -9999 50.05956 51.06505 51.21467 50.94046 50.62359 50.33827 46.02339 42.70236 43.05867 43.39882 44.79665 45.13858 45.07945 44.69289 43.23845 42.20811 40.98006 40.03503 37.96876 39.77435 40.56776 40.87712 40.57557 40.15719 39.48754 38.42867 36.41208 35.83831 35.67402 35.81268 36.51546 37.15646 37.68274 38.17301 38.99254 37.86853 36.6878 35.81454 34.71369 34.46008 34.32209 34.25697 33.72789 33.69547 33.69547 34.14275 37.69875 38.2626 38.19213 37.72025 36.0312 36.50903 37.99615 39.72438 40.17085 40.49008 39.23552 37.28525 36.25634 35.74757 35.20501 34.66329 33.30209 32.70556 32.70556 33.66051 35.16569 35.54905 35.70973 35.55269 33.95839 33.4274 33.569 34.23071 41.04964 39.80478 35.19409 31.12235 38.59878 41.30313 41.32854 38.96074 37.97003 38.04866 38.05639 38.0546 37.85954 37.95558 38.18511 38.4959 39.29374 39.93158 41.71956 43.11543 38.87485 37.51621 36.18392 34.82482 32.10162 30.86565 29.66433 27.4858 31.19705 32.78341 34.28648 35.74367 36.22287 34.71638 33.16305 31.63852 28.98487 27.36219 25.70487 25.92971 28.75074 30.34796 32.47947 34.53456 34.62668 32.63499 30.06404 29.02754 26.97823 25.52374 24.11311 23.49734 24.70384 26.28404 26.95223 26.36346 27.1544 29.86217 30.65237 31.38402 31.84647 32.24652 32.93146 31.70709 29.89913 28.45028 28.03161 27.43826 25.45788 24.19343 22.8042 23.57501 25.61509 25.95677 25.81445 27.43034 30.00123 31.8843 30.12767 27.58042 23.18675 23.82275 23.9676 23.32901 21.41248 21.00703 22.03735 24.4277 29.75615 30.9669 30.68186 28.85918 21.12734 19.6278 22.13612 24.92834 27.07715 25.59932 23.6615 24.06009 27.77945 29.37457 28.43308 26.52384 22.54685 20.43519 19.3176 18.36049 16.25158 15.04583 13.70436 12.27123 11.30991 11.30991 11.30643 11.07547 10.86841 10.93653 11.11563 11.4269 12.53336 12.7469 12.93215 13.14107 13.72991 13.60609 13.33404 13.1623 12.31294 11.95685 11.79481 11.83222 12.70713 13.66557 14.77344 15.87066 17.04763 16.64062 15.49172 14.19171 11.49321 11.40571 11.90144 12.31432 12.75987 13.40312 16.60302 17.81858 18.12695 18.6238 18.692 16.21794 14.08046 16.25026 20.19328 21.13614 23.39351 23.18167 21.47817 19.6287 21.52795 23.32713 24.89093 26.66681 29.52543 30.61178 -9999 -9999 -9999 -9999 -9999 -9999 -9999 -9999 -9999 -9999 -9999 -9999 -9999 -9999
-9999 -9999 -9999 -9999 -9999 -9999 51.3415 50.90505 50.37046 49.94513 46.5241 43.83398 43.93478 44.08353 45.80597 46.17437 46.06081 45.54665 43.76419 42.58264 41.18137 39.90127 37.75007 36.93024 38.18558 39.52378 39.61393 39.23214 38.58275 37.73354 36.16463 35.74322 35.52456 35.50428 35.67198 36.16996 36.59954 37.01427 37.52731 36.67645 35.83727 35.26724 34.50646 34.22663 34.00031 33.81779 33.64103 33.6451 33.65745 34.21041 36.46391 36.77422 36.776 36.60044 36.41927 36.53862 37.19107 38.30695 39.59853 40.31725 40.09706 38.62958 37.00104 36.17762 35.41608 34.69806 32.97073 32.69556 32.70556 33.02191 33.9598 34.25062 34.40403 34.42091 33.15454 33.08234 33.08227 33.41845 41.23393 38.37153 34.99403 32.11111 36.54211 39.39051 41.02691 37.61125 37.04494 37.29033 37.39324 37.44247 37.89923 38.11201 38.47541 38.93732 39.77748 41.02458 42.16886 41.52446 39.20622 38.02351 36.79681 35.5016 32.85124 31.55633 30.2603 28.11314 30.34797 31.72041 33.0957 34.50951 35.76303 35.03557 33.94735 32.50417 30.02565 28.2669 26.44063 25.904 28.07198 29.7944 31.5968 33.66865 34.7838 33.23091 31.44782 30.27258 27.10782 25.66376 24.35046 23.34764 23.66944 24.65343 24.85765 24.57939 25.89436 29.02311 30.34794 30.7513 30.6714 30.70364 31.73076 32.70374 30.4809 29.27031 29.51204 29.56472 26.62137 24.91174 23.3598 23.19474 25.23002 26.1967 27.68078 29.81516 31.34264 31.8273 30.87451 27.21596 26.27837 27.78 28.55597 26.74871 22.11415 20.49187 20.44204 22.09991 28.2743 30.2572 30.11907 27.72923 21.04547 18.75183 21.06881 24.2303 23.54181 20.77576 19.81789 22.07169 26.99853 28.30653 28.6492 27.65172 24.56993 22.51238 20.65392 19.35112 16.99998 15.78911 14.50753 13.21157 11.30991 11.30991 11.30991 11.28813 10.99029 11.1107 11.20647 11.27087 11.8296 11.99416 12.09663 12.23738 12.73648 12.62574 12.46531 12.35134 11.83974 11.65368 11.60776 11.7155 12.55567 13.3467 14.14512 14.91188 15.66543 15.31282 14.33766 13.25656 10.9394 11.28843 11.97661 12.44454 12.64553 12.45913 14.00928 14.40407 15.56159 16.07722 15.7087 14.10748 14.53516 20.40414 21.27193 22.23835 22.68765 21.60694 20.05201 18.63182 23.66105 25.70739 27.02653 28.69435 30.45236 30.56053 30.49994 -9999 -9999 -9999 -9999 -9999 -9999 -9999 -9999 -9999 -9999 -9999 -9999 -9999
-9999 -9999 -9999 -9999 -9999 -9999 51.14613 50.44608 49.82281 48.99828 46.59591 43.97161 43.93478 44.58457 46.85045 47.37423 47.22086 46.53519 44.42999 43.15388 41.77961 40.44945 38.0145 36.92778 36.92394 37.15201 38.16634 38.11453 37.64915 36.95354 35.90673 35.70744 35.50573 35.30396 34.78689 35.12304 35.47057 35.79227 36.19636 35.5783 35.13597 34.88347 34.41562 34.1745 33.93692 33.72215 33.41967 33.41915 33.47108 34.27214 35.54157 35.77486 35.84237 35.90896 36.17262 36.42434 36.84095 37.65887 39.23379 40.10607 40.18012 39.55151 37.14773 36.18073 35.32139 34.53087 33.00606 32.50673 32.5485 32.63825 33.17809 33.41973 33.58171 33.63381 33.40898 33.1491 33.08227 33.76258 39.61819 37.42736 34.67989 31.88532 34.37624 36.86585 39.01852 38.3628 36.8052 36.74809 36.62644 36.47619 37.05108 37.59124 38.20949 38.95386 40.40742 41.52544 40.34993 39.72395 39.00162 38.19605 37.28657 36.22265 33.57636 32.23915 30.84625 29.11089 29.26631 30.63482 31.84622 33.25682 35.00694 34.92344 34.42016 33.2888 30.47379 28.89678 27.087 25.96195 27.19823 28.95539 30.75861 32.94187 34.87981 33.90239 32.73593 31.06606 27.27431 25.96537 24.80182 23.57203 22.48335 23.00061 23.08567 23.04705 24.36042 26.90657 29.3063 30.24088 29.79031 29.37849 30.49368 31.87644 31.3923 30.5275 30.53804 30.24668 27.00454 25.1736 23.63633 23.18017 25.21503 26.83144 29.17085 30.42205 31.10156 30.54481 29.46905 26.17445 29.78654 30.68004 30.41977 28.73471 22.80694 19.96001 19.26759 19.61222 26.15318 28.46846 28.7002 26.89504 20.91019 18.15675 20.50441 23.42247 20.31701 18.50629 20.20457 22.98266 26.42071 27.27269 27.68958 27.38893 26.67497 24.61656 22.44897 20.74607 17.97727 16.7731 15.50158 14.14673 11.39639 11.30991 11.30991 11.30991 11.47318 11.73589 11.89408 11.94552 11.74393 11.69562 11.6256 11.52131 11.76827 11.80335 11.84634 11.81758 11.53372 11.4249 11.41719 11.53304 12.3251 12.94721 13.53991 14.07209 14.47498 14.10697 13.28979 12.39262 10.90435 11.78047 12.71264 13.3049 13.45848 12.8955 12.79443 12.74286 13.84046 13.84895 13.94074 15.35848 19.98717 21.23287 21.82727 22.17442 21.1783 20.20994 18.3355 18.83221 25.05176 25.98377 26.33259 26.80703 28.82074 29.74751 29.46728 -9999 -9999 -9999 -9999 -9999 -9999 -9999 -9999 -9999 -9999 -9999 -9999 -9999
-9999 -9999 -9999 -9999 -9999 -9999 -9999 50.31915 49.21478 48.79852 47.25454 46.09314 45.82777 45.69306 47.92096 48.75016 48.56766 47.59272 45.15126 43.83645 42.57434 41.39545 39.04253 38.00792 37.35461 36.96856 37.09031 37.10135 36.7506 36.2197 35.88504 35.86819 35.69753 35.41672 34.67843 34.61174 34.79127 34.89055 34.98819 34.68872 34.69312 34.66176 34.42105 34.23439 34.01833 33.78522 33.2463 33.18675 33.40037 33.99176 34.83968 35.03088 35.15914 35.30809 35.75669 36.08287 36.52035 37.17631 38.85657 39.73654 39.95909 39.19624 36.89061 35.91439 35.03747 34.24479 32.82866 32.35556 32.24872 32.36066 32.78175 33.10836 33.43284 33.7508 34.66408 34.94555 34.41768 36.69472 39.37082 37.33452 34.63558 31.61346 31.49189 33.78967 35.37886 36.20316 36.74764 36.08763 35.56487 35.13152 35.50764 36.29013 37.21423 38.27929 40.66432 39.99935 38.76494 37.82039 38.10032 37.98872 37.55752 36.84718 34.20996 32.7404 31.37041 29.89319 27.61098 29.28223 30.5197 32.07658 34.2221 34.68237 34.78963 34.01791 31.01393 29.54356 27.78409 25.99313 25.86059 27.30989 29.96923 32.1699 35.21565 33.91738 31.67873 30.0115 27.07455 26.44756 25.56946 24.39586 22.13642 21.58556 21.63332 21.58677 22.50365 24.79089 27.31138 29.46464 28.8162 28.75062 30.07281 31.01324 31.76965 31.39639 31.01283 30.20535 27.16517 25.42562 23.73054 22.96891 25.16863 26.97428 29.34172 30.38522 29.75892 28.46577 27.45112 28.228 31.36513 29.9257 28.59353 26.97781 22.59462 20.31503 14.99569 14.92929 23.59671 25.66307 26.67985 26.00658 20.81864 17.70543 20.00976 21.95359 18.20414 19.84535 22.28597 24.7455 26.1098 26.4294 26.56564 26.47206 28.38067 26.08205 24.00693 22.32266 19.102 17.82952 16.48232 15.09934 12.24195 11.30991 11.30991 11.3319 12.34776 12.6746 12.88512 13.00003 12.83722 12.53185 12.18699 11.84387 11.20888 11.51009 11.66302 11.6505 11.41116 11.30437 11.28353 11.37041 12.02552 12.51811 12.96714 13.33163 13.52553 13.17136 12.499 11.8696 11.34481 12.19368 13.46072 14.73728 15.93694 16.07318 15.79873 15.86198 14.05033 13.46724 13.68523 15.74273 20.39176 20.97044 21.01889 20.88377 19.77224 18.33628 17.32034 18.62693 22.30553 23.24823 23.84775 24.43668 27.64522 29.03594 28.29373 -9999 -9999 -9999 -9999 -9999 -9999 -9999 -9999 -9999 -9999 -9999 -9999 -9999
-9999 -9999 -9999 -9999 -9999 -9999 -9999 -9999 -9999 49.84762 49.56137 51.21416 51.7283 49.80187 50.87136 51.79973 50.86215 49.02388 46.05206 44.82753 43.69955 42.64714 40.64099 39.84257 39.09435 38.38286 37.30236 37.18317 37.14557 36.71515 36.21152 36.21152 36.20714 35.95804 35.33824 35.30325 35.29858 35.26342 34.83051 34.55489 34.6896 34.7877 34.78775 34.7067 34.55468 34.3073 33.39002 32.73492 32.97349 33.33224 33.83384 33.96486 34.09129 34.24944 34.75037 35.14173 35.56902 36.0482 37.11077 37.46208 37.50394 37.09392 35.58004 34.76785 34.00441 33.31083 32.17931 31.81074 31.68351 31.84137 32.65418 33.20569 33.82814 34.51993 36.146 37.2611 38.65691 40.82022 42.23941 40.19044 35.89362 31.39095 29.01372 29.66489 31.92269 33.8498 35.26015 34.23058 33.10437 32.17352 31.64764 32.47586 33.91437 35.72212 38.58499 37.60785 35.73058 34.01455 34.38351 36.1404 37.61972 38.30468 35.08068 32.53354 29.87364 28.7998 26.83752 26.66482 28.43989 30.18611 31.94561 32.87011 33.86166 34.49827 32.11051 30.65642 28.90653 26.37598 23.07595 23.59811 27.02208 29.93723 33.73685 35.20004 32.27422 30.40854 30.00127 29.9694 28.58523 26.55744 23.36856 21.22736 19.88404 19.87557 19.87557 20.27108 22.62041 24.5149 26.73592 28.30124 29.79327 30.22905 29.80985 30.36183 30.98832 30.51718 27.96716 26.30352 24.52477 22.72137 23.078 23.86583 24.32887 23.62352 22.64229 26.16 30.33517 32.14791 29.8917 27.87249 26.01884 24.32918 20.93077 19.51509 14.94187 14.77991 17.47503 20.87647 22.58832 24.1367 21.2353 18.73528 16.51819 16.69792 21.41039 23.33373 24.35584 24.1025 25.18154 24.88862 24.05458 22.51287 19.71826 21.30594 25.72456 26.58771 22.06812 20.01013 18.49887 17.15478 14.66957 13.61877 13.24455 13.73435 14.63515 14.97962 15.23128 15.34646 15.16276 14.88535 14.52994 14.11963 12.8591 12.45285 12.11822 12.02625 11.62045 11.41498 11.27678 11.22175 11.42502 11.65073 11.91217 12.09865 12.05754 11.72654 11.40821 11.22821 11.5518 12.36811 13.61046 15.49127 20.33805 22.17354 21.80708 20.77275 16.87425 17.63088 17.13071 15.06467 16.35609 16.91025 16.83319 16.39568 16.53585 18.96024 21.17358 22.97932 24.65601 25.21571 25.53721 25.98819 28.166 -9999 -9999 -9999 -9999 -9999 -9999 -9999 -9999 -9999 -9999 -9999 -9999 -9999 -9999 -9999
-9999 -9999 -9999 -9999 -9999 -9999 -9999 -9999 -9999 54.07266 53.19705 53.97871 53.64137 51.96757 53.6149 52.22753 50.27394 48.93921 46.22398 45.08839 44.03239 43.05412 41.26387 40.22274 39.74466 39.10871 37.78669 37.89649 38.23056 38.27064 37.26494 39.14766 37.66433 36.69075 35.71101 35.85387 36.05357 36.21257 35.90578 35.31984 35.18661 35.19238 35.2053 35.16244 35.03215 34.78977 33.77131 32.97084 32.83015 33.062 33.45227 33.54769 33.63555 33.7582 34.21234 34.56573 34.93975 35.3441 36.13338 36.33088 36.29457 35.97237 34.73911 34.02921 33.35952 32.75204 31.77598 31.46721 31.38034 31.61621 32.63245 33.27383 33.97619 34.76074 36.65269 37.848 39.28025 40.93089 41.66697 40.2264 36.23406 32.48112 29.90557 29.90284 31.65621 33.63247 34.79779 33.41284 31.96245 30.70212 29.53873 30.35398 32.39981 34.6984 37.76056 36.99082 34.79062 32.47728 32.01567 34.14285 36.23613 38.3125 35.63485 33.21869 31.08098 30.64575 27.93898 26.10018 26.73849 27.99097 30.52098 31.54079 32.68021 33.77864 32.56839 31.17842 29.76564 26.58752 23.07595 23.96935 26.08384 28.19368 30.95798 33.90138 34.65762 32.7796 31.53043 30.90826 29.4507 27.37868 24.25789 21.86654 19.87599 19.87557 19.87557 19.87557 20.64156 22.73268 26.17328 28.17122 30.11294 30.94335 29.04486 29.04486 30.41776 30.7694 28.898 26.95429 25.13877 23.3581 22.01001 22.38992 22.54076 22.64229 23.73248 28.89462 31.99627 31.77103 28.60114 26.85462 25.34315 24.32396 22.11909 21.36309 20.3707 14.77991 14.77991 16.7999 20.50762 21.61141 21.15376 18.82391 16.51891 17.97935 22.09666 23.34457 22.44263 21.13955 24.94125 25.14621 23.73228 20.46411 19.70603 19.70603 25.12494 28.0916 23.59103 21.39543 19.56793 18.26571 16.09846 15.23146 14.93505 15.21068 15.95285 16.26552 16.50563 16.60582 16.36902 16.06894 15.70645 15.1572 13.73235 13.16586 12.6086 12.45596 11.9067 11.64711 11.42735 11.27129 11.17797 11.26269 11.42935 11.57427 11.42141 11.16387 10.98453 10.92818 11.44565 12.1756 13.24787 14.91049 20.43539 22.04036 21.39454 19.60761 18.19376 20.14147 20.30094 17.96299 14.8942 14.66373 14.91665 15.66206 18.96329 20.11559 22.30581 25.03535 27.55068 28.17817 28.38434 28.50898 -9999 -9999 -9999 -9999 -9999 -9999 -9999 -9999 -9999 -9999 -9999 -9999 -9999 -9999 -9999 -9999
-9999 -9999 -9999 -9999 -9999 -9999 -9999 -9999 -9999 -9999 56.73904 56.68721 56.02157 55.27463 53.75799 50.10003 49.42266 48.48581 46.2779 45.23174 44.22446 43.28434 41.73277 41.06952 40.51643 39.87185 38.01593 38.71107 39.47515 40.31015 42.54346 41.24955 39.6353 37.75914 35.9991 36.48027 36.95662 37.31255 37.10521 36.13951 35.83858 35.76609 35.77485 35.76246 35.65679 35.37161 34.22378 33.36844 32.88942 32.86686 33.1283 33.18841 33.22119 33.28533 33.64692 33.94159 34.26551 34.61451 35.16042 35.2332 35.12928 34.86018 33.84071 33.23307 32.66936 32.15838 31.34305 31.09515 31.07062 31.38452 32.54865 33.22186 33.96687 34.805 36.8764 38.18031 39.54119 40.90958 40.8553 39.82243 36.77905 33.89139 29.96175 29.94646 31.41594 33.45109 34.58257 32.81058 31.03119 29.24686 29.04746 29.25828 31.29609 33.78057 37.50228 36.69795 34.26593 31.67138 30.54668 32.6179 34.76847 36.79393 36.69011 34.92807 33.26442 32.22362 28.9481 26.69197 24.97031 25.11321 28.33571 30.29879 31.56323 32.78399 32.96066 31.63725 30.42886 27.79237 23.58497 23.7421 25.24008 26.75277 29.51377 32.28003 34.77081 34.68993 32.81723 31.68534 29.94052 28.61528 25.57694 22.93894 20.06414 19.87557 19.87557 19.87557 19.87557 21.70398 26.02889 27.85444 29.5421 31.32346 29.63188 29.6995 30.00978 30.50558 29.02071 27.17169 25.41134 23.73958 21.58719 21.68315 21.88735 22.63373 27.58028 30.80068 32.65912 30.77334 27.6612 25.95906 25.61544 25.12782 23.42451 22.40627 21.16617 17.2673 14.77991 14.77991 15.09966 18.92452 20.1849 18.05763 15.88024 18.0311 21.89455 21.66179 20.34174 19.45852 24.82814 27.54806 24.70443 21.19021 19.76204 19.75708 24.08846 27.66803 24.9561 22.85792 20.87762 19.4569 17.57561 16.81508 16.5484 16.72119 17.32261 17.61562 17.84217 17.92045 17.57515 17.25613 16.87201 16.15755 14.55813 13.88138 13.15866 12.96252 12.27913 11.97389 11.68493 11.42436 11.0233 10.92412 10.97245 11.0636 10.8733 10.73165 10.64225 10.65589 11.22229 11.82614 12.72412 14.16924 19.31203 18.47893 16.49894 12.26056 20.55496 21.44996 21.74797 20.34105 18.28929 17.18553 15.93542 16.73007 20.97701 22.02559 22.65269 24.47057 29.52042 30.26017 30.23628 30.25546 -9999 -9999 -9999 -9999 -9999 -9999 -9999 -9999 -9999 -9999 -9999 -9999 -9999 -9999 -9999 -9999
-9999 -9999 -9999 -9999 -9999 -9999 -9999 -9999 -9999 -9999 55.02058 57.22318 58.18612 56.82996 52.78247 49.81618 48.90776 47.93004 46.29582 45.29641 44.30953 43.38113 41.88669 41.64322 40.75862 39.56244 38.84311 39.74155 41.32389 43.17168 42.69641 40.0436 39.13146 38.01706 36.59562 37.41905 38.09895 38.64355 38.41338 36.95327 36.44949 36.37358 36.4809 36.51792 36.39808 36.03611 34.71006 33.72819 33.0393 32.77929 32.85723 32.88176 32.85929 32.84069 33.04777 33.29196 33.57386 33.86621 34.1864 34.17128 34.02353 33.76036 32.87686 32.37125 31.93715 31.54598 30.90187 30.70833 30.76349 31.13055 32.35953 33.04959 33.81602 34.67682 36.78822 38.12577 39.61055 40.59479 39.75204 38.66167 36.73672 34.59089 30.04288 29.82402 30.61211 32.85495 34.14451 32.32468 30.58911 29.25508 29.04746 29.04746 29.87911 32.67016 38.05927 36.5131 33.99019 31.48398 29.96125 31.30812 33.51329 35.5548 37.30846 36.57007 34.97364 33.60161 30.16458 27.73489 24.68785 24.52468 25.25525 27.96064 30.68522 31.8931 32.78374 31.86999 30.7234 29.33802 24.49148 23.77533 24.85686 26.45696 29.65467 31.91019 34.18707 34.93758 34.08374 32.67398 31.17235 30.44979 26.97104 23.87208 20.90354 19.97983 19.87725 19.87926 20.146 21.93402 26.17864 28.03459 29.32217 30.99262 29.37117 29.06918 29.51522 29.99894 28.45214 26.80714 25.20965 23.66556 20.98206 20.55258 20.48061 22.12741 27.99692 30.62623 32.86216 31.92526 28.42106 27.61206 27.27814 26.70905 24.65437 23.39741 22.08016 20.79465 15.12044 14.77991 15.44975 16.69456 17.78847 16.60227 16.08673 17.56917 20.78394 19.93038 18.49044 19.41172 25.24177 27.05454 24.10965 21.10339 19.82558 21.43264 24.13834 27.22189 26.26063 24.29049 22.44672 20.77865 19.01722 18.37971 18.12293 18.22294 18.70869 18.97627 19.2264 19.29107 18.7524 18.4499 18.03061 17.14088 15.31916 14.5886 13.71846 13.48267 12.6947 12.36706 12.05937 11.75948 11.15348 10.82038 10.57423 10.61755 10.55614 10.46948 10.41042 10.45217 10.89784 11.34073 12.02701 13.20992 15.49957 13.47961 10.99573 14.6099 21.35421 22.49438 23.39293 23.14884 21.37027 20.06241 17.53069 17.15723 22.1633 24.09727 25.0323 25.78103 30.13696 30.81819 31.25166 31.38493 -9999 -9999 -9999 -9999 -9999 -9999 -9999 -9999 -9999 -9999 -9999 -9999 -9999 -9999 -9999 -9999
-9999 -9999 -9999 -9999 -9999 -9999 -9999 -9999 -9999 -9999 -9999 54.87276 57.68117 58.29527 55.27419 52.83581 49.77028 48.59789 46.35386 45.27496 44.21938 43.22794 41.55993 40.71633 39.74372 39.71314 42.769 45.62054 47.4049 47.25892 42.16505 39.76917 38.4683 37.48647 39.05344 40.26699 41.5784 41.5462 39.49234 38.19585 36.98125 37.36061 38.44587 38.58807 38.32453 37.55558 35.37878 34.29527 33.38248 32.82492 32.50627 32.44451 32.3508 32.21181 31.83833 32.02011 32.18784 32.28923 32.3167 32.24057 32.06355 31.75903 30.61606 30.53854 30.52027 30.4571 30.39516 30.39834 30.39834 30.45778 31.68976 32.3745 33.10583 33.87857 35.54359 36.35794 36.88837 36.68887 35.24104 34.63331 34.27137 33.94857 30.75097 29.773 29.84213 30.94102 33.30582 31.45595 29.97534 29.85028 29.87204 29.91601 30.37564 32.51476 37.02179 36.63227 34.17974 31.63965 29.50087 30.06408 31.90461 33.83704 36.45892 37.59448 37.24047 36.09203 33.22306 31.77683 30.70365 25.5597 24.52468 24.55343 27.7477 30.21207 31.70347 31.90082 30.99148 30.12497 25.56633 23.53568 25.31201 27.64751 32.22099 31.02099 30.21276 31.11571 34.06529 33.26294 32.75133 31.39833 28.24867 25.90658 23.82943 22.20088 20.21795 20.14467 21.04661 22.55155 26.66906 28.96809 30.39953 31.01663 28.69654 27.80926 27.91157 27.7637 25.96543 24.82709 23.62929 22.40411 19.67228 19.01196 19.01196 20.31819 25.30542 27.71775 29.557 31.2912 32.51938 31.70595 30.74197 29.12697 25.76857 24.33968 23.04408 21.95212 20.62463 20.40032 19.20276 18.59082 16.94095 15.91264 14.62804 15.21092 16.31419 18.34477 20.30834 22.27077 25.80956 24.69106 21.77077 19.09619 19.49347 22.09138 24.46666 26.40357 28.29679 27.08545 25.39446 23.75122 20.9571 20.0449 19.93623 20.06742 21.82921 22.20596 22.19946 21.94018 21.06257 20.71813 20.19197 18.8753 16.63821 15.82312 14.81741 14.53759 13.69464 13.37222 13.08801 12.83451 12.41219 12.16229 11.8757 11.52276 10.98103 10.75666 10.54708 10.36324 10.2377 10.23762 10.22359 10.12052 11.17158 12.55511 14.62312 17.7606 21.95503 23.4852 24.97568 26.35905 25.93116 23.83589 20.12174 17.76101 19.85652 22.27399 24.53854 26.36939 29.37494 29.93057 29.77084 30.09959 -9999 -9999 -9999 -9999 -9999 -9999 -9999 -9999 -9999 -9999 -9999 -9999 -9999 -9999 -9999 -9999
-9999 -9999 -9999 -9999 -9999 -9999 -9999 -9999 -9999 -9999 -9999 -9999 57.851 59.5047 57.95257 55.26614 50.87201 49.58573 46.50342 45.23477 44.05371 42.96387 41.2642 40.72797 40.77608 41.62334 45.11044 48.5156 50.3469 48.15699 42.314 39.87895 38.54475 37.84743 40.24236 42.29193 41.71275 39.91484 38.31668 37.42542 38.04972 38.95761 39.96601 39.94301 39.2813 37.99889 35.54572 34.45704 33.50105 32.82052 32.5408 32.43595 32.3275 32.22642 31.96879 31.78218 31.76046 31.74289 31.58755 31.45569 31.2705 30.95061 30.33266 30.35335 30.36787 30.33553 30.37045 30.20499 30.01701 29.94442 31.20252 31.86201 32.52886 33.19644 34.43932 34.86707 34.98505 34.51429 32.94224 32.07613 31.8989 32.29782 30.91773 29.78104 29.74534 30.36807 32.25566 30.93113 29.93553 29.7936 29.765 29.86279 30.29729 32.25659 36.67067 36.87609 34.52044 32.13675 29.30236 29.83997 31.49539 33.29739 34.57743 35.99495 37.09356 36.9917 33.5111 30.94982 29.61811 26.189 24.52468 24.52468 25.05734 27.72224 30.88752 31.05617 30.63316 29.92161 25.0771 23.56898 25.68731 28.07231 30.51271 29.30542 29.07351 30.84416 32.6471 31.95066 32.41806 31.7787 29.5316 27.08177 24.76205 22.86596 20.39936 20.18812 21.06306 22.5378 26.66321 29.07681 30.51863 30.61816 28.28188 26.97963 26.7029 26.37339 24.8134 23.89065 22.88648 21.83008 19.6069 19.01196 19.01196 19.07565 23.95695 26.44921 28.72322 30.70901 30.74817 29.92865 29.56316 28.52847 25.81249 24.45911 23.18801 22.08987 20.84079 21.11116 21.0253 20.5633 19.26006 17.28631 15.13018 14.52178 17.80924 20.25922 21.76594 23.5319 25.5618 23.66393 21.23245 19.14584 19.18787 21.90252 24.18681 25.77258 28.1887 28.37336 26.50327 24.68073 21.47431 20.23851 19.7551 20.43213 23.37991 24.03085 23.85929 23.40327 22.31981 21.87664 20.85062 19.5357 17.18547 16.32949 15.28607 15.02026 14.25716 13.97676 13.74165 13.5485 13.18926 12.93882 12.62342 12.22997 11.44886 11.12178 10.81617 10.5352 10.146 10.08233 10.00009 10 11.75947 13.72525 15.75136 17.9144 21.892 23.63409 25.41619 27.23186 25.64257 23.34219 20.01903 19.91652 20.53805 21.25471 23.18071 25.06365 27.97792 28.63965 28.90905 29.35673 -9999 -9999 -9999 -9999 -9999 -9999 -9999 -9999 -9999 -9999 -9999 -9999 -9999 -9999 -9999 -9999
-9999 -9999 -9999 -9999 -9999 -9999 -9999 -9999 -9999 -9999 -9999 -9999 58.97621 61.61578 61.29785 58.40545 53.90611 50.68288 46.6832 45.14394 43.75069 42.48811 41.62986 42.51241 43.90781 45.49859 46.87033 49.80092 52.51794 48.00038 42.17277 39.72951 38.66028 38.45718 41.32721 42.74009 40.65408 39.09875 38.88333 38.35065 39.50271 40.13425 40.42157 40.18956 39.56345 38.07882 35.54285 34.46833 33.51077 32.70149 32.65761 32.58311 32.52191 32.46701 32.15606 31.89575 31.65074 31.47207 31.1088 30.88964 30.66711 30.39682 30.36435 30.509 30.33425 30.19425 29.88317 29.43041 29.18946 29.4033 30.47131 31.11324 31.71552 32.26145 33.09207 33.25974 33.07695 32.37061 30.85117 30.01548 29.96046 30.09501 30.15486 29.7164 29.6778 30.1507 30.97706 30.05117 29.85528 29.71374 29.66353 29.82098 29.98095 31.5827 36.11996 37.1247 35.1269 32.9538 29.53451 29.36239 30.38016 31.69413 32.37439 34.06657 36.23701 37.78724 33.50089 30.7037 29.22126 27.86636 24.52468 24.52468 24.52468 24.52329 30.03971 30.28046 30.10099 28.80157 24.41772 23.45412 25.4103 27.80242 28.96753 28.03602 29.04539 31.36282 30.18689 29.81214 30.39004 31.18722 30.21854 27.92659 25.29167 23.22845 20.41922 20.06372 20.84667 22.26195 26.33537 28.68892 30.26452 30.29592 27.59141 26.20002 25.55952 25.10048 23.89025 23.14653 22.31048 21.4184 19.60995 19.04348 19.01196 19.01196 23.32513 26.40166 29.5488 31.49442 29.90127 29.13042 28.76918 28.17271 25.90959 24.60744 23.3134 22.12255 20.89848 21.64941 22.54169 21.58568 20.06163 17.99971 15.58743 14.27249 18.87429 20.88773 22.49019 24.35613 25.11006 23.12698 21.08977 19.64813 19.13977 21.99191 24.03864 24.90689 26.90604 27.9237 26.9523 25.30993 21.81837 20.31017 19.58226 20.51495 24.87247 25.88741 25.33713 24.60984 23.07648 22.27351 20.99482 19.79476 17.6557 16.75508 15.68067 15.43853 14.80806 14.59771 14.43539 14.31716 14.00503 13.74019 13.38387 12.95285 12.00535 11.5752 11.17256 10.79516 10.19403 10.13197 10.00086 10 13.13832 14.98294 16.83399 18.37919 22.30573 23.9533 25.56869 27.90703 25.09606 22.71981 20.8429 22.25861 24.10228 23.26469 22.88877 24.56229 26.92986 27.63623 -9999 -9999 -9999 -9999 -9999 -9999 -9999 -9999 -9999 -9999 -9999 -9999 -9999 -9999 -9999 -9999 -9999 -9999
-9999 -9999 -9999 -9999 -9999 -9999 -9999 -9999 -9999 -9999 -9999 -9999 -9999 65.48148 64.78577 59.47303 54.7042 50.92963 46.73591 44.93336 43.29378 41.80234 43.04987 44.68226 46.70169 49.14704 49.94963 53.04758 51.58947 48.12929 42.57004 39.83919 39.10519 39.04288 42.16568 43.36905 40.69953 40.33221 39.43159 39.31342 40.20444 40.5411 40.47346 40.07646 39.11587 37.71785 35.25332 34.35043 33.53762 32.71437 32.74279 32.81662 32.78523 32.73413 32.3624 32.0867 31.78356 31.47486 30.90809 30.63466 30.40002 30.33266 30.68829 30.4639 30.15696 29.9458 29.44601 29.01095 29.00883 29.00883 29.68736 30.21643 30.73435 31.17196 31.71792 31.68122 31.17414 30.20766 29.95427 29.87666 29.8308 29.87572 29.7996 29.58023 29.64141 29.96338 30.03074 29.85216 29.72161 29.59469 29.6226 29.80013 29.96746 31.36567 35.43582 35.98431 35.26176 33.69738 29.97393 29.11512 29.62028 30.4681 30.11003 32.69422 35.05126 36.95722 34.66071 32.3322 31.29803 30.90746 24.8001 24.52468 24.52468 24.13317 27.70197 28.51044 28.17823 27.02177 24.3175 23.90277 24.65854 26.13669 27.44623 27.74263 29.51828 32.84146 29.12476 28.06805 28.47996 29.41571 29.21735 27.09126 24.95043 23.02547 20.19173 19.99442 20.33454 21.66404 25.49691 27.68643 29.95967 29.88386 26.80291 25.35573 24.39379 23.97928 23.15865 22.56584 21.88236 21.14181 19.64448 19.15976 19.01196 19.01196 23.35578 26.71202 29.98201 31.74431 29.91225 29.01645 28.65219 28.05392 26.08923 24.84613 23.46822 22.10242 20.65218 21.97179 23.10048 21.96041 20.18175 18.03954 15.52982 14.44452 18.46704 20.39377 22.53789 24.28146 24.84143 23.18716 21.16039 18.82359 19.21651 21.80607 22.82177 23.32326 25.64873 26.81333 26.65511 25.59616 22.05422 20.30877 19.42595 19.98119 25.61376 27.12714 26.21274 25.48839 23.7278 22.62423 21.16885 19.82252 18.06311 17.1004 15.97483 15.76971 15.3548 15.24763 15.1879 15.15936 14.86976 14.56081 14.1582 13.67928 12.6152 12.10298 11.60837 11.13413 10.30235 10.18631 10.00117 10 14.68526 15.50403 17.52043 20.21981 22.63273 23.63923 25.83331 28.42643 24.66066 22.22663 22.071 24.35804 26.87761 25.66603 24.64511 25.07636 26.2263 -9999 -9999 -9999 -9999 -9999 -9999 -9999 -9999 -9999 -9999 -9999 -9999 -9999 -9999 -9999 -9999 -9999 -9999 -9999
-9999 -9999 -9999 -9999 -9999 -9999 -9999 -9999 -9999 -9999 -9999 -9999 -9999 74.15058 71.13328 61.75857 54.25708 49.1855 45.91619 44.12746 42.47466 41.79124 44.89662 46.65536 48.19074 49.62818 58.33202 59.22006 56.0929 52.05459 45.17575 42.30772 40.03792 39.89832 41.15887 42.51775 43.02686 42.34125 39.96328 40.20108 40.97028 41.07224 39.97062 38.76953 37.40854 36.26004 37.05927 37.37363 37.25945 36.75781 34.16533 33.41772 33.34052 33.28393 32.85818 32.65143 32.39888 32.08244 31.25777 30.75552 30.33722 30.33266 29.55174 29.49446 29.46668 29.33329 29.00891 29.00883 29.00883 29.00883 29.00883 29.00883 29.02163 29.0652 29.10833 29.02779 29.00883 29.00883 29.92771 29.77081 29.63591 29.57479 29.46028 29.4796 29.53902 29.61449 29.609 29.53739 29.42431 29.39207 29.62505 29.79632 29.96266 31.41273 34.35356 34.92422 34.90335 34.33826 31.46173 30.14056 29.24347 28.92906 30.20895 31.97793 33.5808 35.09209 36.838 36.02006 34.9033 33.74929 31.189 30.1378 28.95818 27.24089 23.77385 24.07831 24.5457 24.29471 23.60164 23.70532 24.25203 25.24147 27.37365 29.05013 31.22279 33.56089 30.16714 29.06281 27.1146 25.56038 23.99406 23.66536 22.92956 21.47255 19.88058 19.7545 19.76164 19.86809 22.08205 24.15958 25.97175 26.64996 26.11342 24.75797 22.80632 22.79927 22.27788 21.92615 21.49736 21.01938 20.03486 19.41254 19.01196 19.01196 23.02447 26.53049 29.95918 31.05502 29.94785 28.48321 27.89409 27.47292 26.43038 25.60362 24.27849 22.24202 19.2731 19.33422 19.95502 20.13012 19.12705 16.73532 14.64307 14.14705 19.70339 21.09419 22.74853 23.37557 24.37121 23.6717 21.6964 19.81722 17.45072 19.766 19.83574 19.58147 23.52678 25.38879 26.32976 26.1228 22.31582 19.93379 19.42113 19.42113 21.75368 24.1875 25.28551 25.66835 24.98832 23.51199 21.61484 19.79082 18.3644 17.61389 16.57564 16.55398 16.8156 16.94348 17.05279 17.09668 16.68229 16.26743 15.74911 15.13881 13.8109 13.14941 12.4994 11.85456 10.52013 10.00103 10 10 10.00582 10 11.9882 14.13323 18.70847 20.51765 25.57184 29.20407 25.067 23.22492 23.87856 26.27982 30.67406 29.86474 28.5128 27.78884 -9999 -9999 -9999 -9999 -9999 -9999 -9999 -9999 -9999 -9999 -9999 -9999 -9999 -9999 -9999 -9999 -9999 -9999 -9999 -9999
-9999 -9999 -9999 -9999 -9999 -9999 -9999 -9999 -9999 -9999 -9999 -9999 -9999 -9999 72.775 64.71504 57.61935 50.17775 45.65739 43.68182 42.04433 41.86904 45.00673 46.88992 48.39084 50.02517 60.31595 61.94905 57.51065 52.81916 45.92781 42.96837 40.02211 39.73883 40.47868 41.11137 41.31418 41.09813 39.92432 40.13134 41.15645 40.80959 39.2005 37.94515 36.64093 36.63142 38.54537 39.37214 39.8294 39.32408 35.34581 33.73447 33.62925 33.56568 33.26314 33.11915 32.90326 32.60812 31.73699 31.12886 30.44295 30.33266 29.12362 29.00883 29.0493 29.04121 29.00883 29.00883 29.00883 29.00883 29.00883 29.00883 29.00883 29.00883 29.00883 29.00883 29.00883 29.00883 29.9175 29.78343 29.63181 29.51054 29.32555 29.35437 29.39675 29.43362 29.39983 29.34816 29.27043 29.30748 29.64342 29.81077 29.96962 31.34081 34.18602 34.81526 34.95984 34.71975 32.07341 30.51286 29.51336 28.78711 30.13431 31.51358 32.91165 34.29742 36.39229 36.92867 36.42179 35.33527 32.96186 31.91901 30.96924 29.47828 25.51585 24.37888 24.1771 23.70132 23.10071 23.49961 24.30413 25.47662 28.52635 29.96055 31.67731 33.36842 32.19384 30.71225 29.1635 28.05176 27.19131 25.97882 24.17118 22.36943 19.8703 19.68027 19.5969 19.70113 20.20503 22.14043 24.02922 25.17561 26.15058 25.80412 23.14468 22.80192 22.32544 21.99601 21.64934 21.28045 20.3828 19.67975 19.26267 19.55677 22.54282 25.89437 29.25289 30.64398 28.70203 27.18635 26.91273 26.87913 26.70783 26.35153 25.35064 23.04472 19.27331 19.2731 19.88578 18.61195 16.41119 15.50968 14.30697 13.74145 19.16368 20.69681 21.80034 22.13662 23.78667 23.90846 22.05667 20.33336 15.52423 16.52396 17.71663 19.71073 22.5983 24.35286 26.27941 26.95556 22.11347 19.47686 19.42113 19.42113 20.46017 22.57038 24.28978 25.39866 25.81097 24.06915 21.88373 19.93515 18.67742 18.06006 17.37403 17.33873 17.7191 17.90734 18.06018 18.12491 17.63202 17.14777 16.54649 15.83951 14.32334 13.58772 12.86787 12.15171 10.59753 10 10 10 10 10.0007 14.36387 17.27231 22.80146 24.02452 25.99167 29.22153 24.32164 23.46472 25.09201 27.30719 31.03662 30.09991 29.12118 28.26478 -9999 -9999 -9999 -9999 -9999 -9999 -9999 -9999 -9999 -9999 -9999 -9999 -9999 -9999 -9999 -9999 -9999 -9999 -9999 -9999
-9999 -9999 -9999 -9999 -9999 -9999 -9999 -9999 -9999 -9999 -9999 -9999 -9999 -9999 72.99298 65.89386 59.75736 52.10423 45.66782 43.29469 41.7347 41.73982 45.17542 47.79093 50.77241 53.77637 59.9338 60.43135 57.12888 53.19891 46.56764 43.58195 40.66317 39.73883 40.02195 40.5787 40.75965 40.48707 39.92432 40.62031 41.22981 40.49146 38.46953 37.21205 36.93708 37.86908 40.12579 42.12642 42.71608 40.78107 35.97335 33.75582 33.75205 33.75205 33.7829 33.7077 33.54567 33.28757 32.428 31.79365 30.9437 30.33266 29.02058 29.00883 29.00883 29.00883 29.00883 29.00883 29.00883 29.00883 29.00883 29.00883 29.00883 29.00883 29.00883 29.00883 29.00883 29.00883 29.9524 29.80865 29.65547 29.49796 29.18787 29.22185 29.25561 29.25892 29.17854 29.11871 29.06558 29.25589 29.68295 29.84586 29.99305 31.58496 34.28207 34.54609 34.66901 34.7081 32.50319 30.78371 29.67608 28.94158 29.68288 30.63298 32.18664 33.45324 34.60326 35.06695 36.05573 36.79169 34.18086 33.32535 32.38021 30.86168 27.19973 25.4709 24.35039 23.54917 22.56339 23.22453 24.27277 25.56089 29.26039 30.84801 31.42425 31.82957 33.78637 32.33969 30.84217 30.50747 30.20231 28.53125 25.59469 23.28273 19.95151 19.73719 19.52324 19.51534 19.84835 20.30222 22.30945 23.92609 26.42731 27.43019 24.29243 22.80192 22.58488 22.29496 21.95839 21.62121 20.90792 20.08496 19.48381 19.18721 21.35414 24.61448 27.92834 30.12438 26.40332 25.12138 25.20476 25.87586 27.08928 27.53217 27.31151 24.84598 21.25199 20.18052 19.77619 18.98224 17.93073 16.81549 15.43875 13.45296 17.40755 19.49387 20.70404 20.17785 22.70586 23.36179 21.96263 20.35173 15.66746 18.44874 20.18987 21.23798 21.91406 22.93261 24.77301 25.76734 21.95552 19.7741 19.42113 19.51362 19.86774 21.21152 22.80814 24.39247 26.53964 24.75199 22.7463 20.64063 19.12991 18.65151 18.12534 18.07929 18.4681 18.8038 19.06244 19.18748 18.5941 18.01054 17.31969 16.47353 14.77074 13.96456 13.18573 12.41483 10.78501 10.03031 10 10 10 12.75296 20.37973 20.95411 23.16941 25.54247 27.32549 27.65191 22.17678 24.19222 26.95899 29.07174 31.35773 29.99193 29.25768 28.39713 -9999 -9999 -9999 -9999 -9999 -9999 -9999 -9999 -9999 -9999 -9999 -9999 -9999 -9999 -9999 -9999 -9999 -9999 -9999 -9999
-9999 -9999 -9999 -9999 -9999 -9999 -9999 -9999 -9999 -9999 -9999 -9999 -9999 -9999 72.34568 65.61726 59.70441 52.46893 45.55582 42.8438 41.7347 41.7347 45.58908 49.72607 53.12927 56.72651 56.84409 56.32803 54.66323 52.10561 46.9031 44.04543 41.29003 40.11521 41.07172 41.49611 41.64127 41.47837 40.39947 40.38811 40.47565 40.19107 38.04473 37.12555 37.97713 39.00597 44.1643 43.79689 40.84997 39.54014 36.3181 34.43623 33.86686 34.2929 34.51533 34.47805 34.37785 34.17695 33.40786 32.73873 31.71638 30.5131 29.0873 29.00883 29.00883 29.00883 29.00883 29.00883 29.00883 29.00883 29.00883 29.00883 29.00883 29.00883 29.00883 29.00883 29.00883 29.00883 29.9281 29.84923 29.70183 29.54534 29.20197 29.13932 29.12057 29.08759 28.95419 28.86407 28.81635 29.03911 29.72356 29.9125 30.1034 31.99624 34.06496 33.70963 33.4438 33.42796 32.89812 31.31615 30.01146 29.16016 29.21671 29.78701 31.34295 32.88403 32.2438 33.08583 34.58829 36.12731 34.31871 33.11045 32.06293 31.20133 28.09377 26.24751 24.81369 23.66586 22.01654 22.81234 23.88191 25.20618 28.34604 29.17659 29.35677 29.65844 32.99955 33.54487 32.85975 32.46246 30.70852 28.73103 25.82317 24.20217 20.44112 19.79615 19.55816 19.35762 19.65783 19.87189 20.67877 22.66453 26.30526 27.34778 25.30206 22.82028 22.8018 22.59547 22.19351 21.8829 21.8247 20.05035 19.12323 18.35033 20.03652 22.99007 26.41507 28.04555 23.47153 22.05363 22.94928 24.48236 27.00721 28.03982 28.3656 26.52883 23.37515 22.36232 21.47473 21.04747 20.53667 19.8252 17.37624 14.75405 15.69326 17.37244 18.55363 18.76199 22.05774 23.18672 21.60142 19.91006 17.85375 20.38873 21.45115 22.6677 21.48539 20.72834 22.05358 23.2982 22.02974 20.85279 20.24044 19.72178 19.32909 20.10516 21.31309 22.83133 25.57378 25.06751 23.83042 21.95664 19.67337 19.31505 18.84424 18.76377 19.00323 19.44343 19.92173 20.28885 19.46879 18.85992 18.05238 17.03248 15.13546 14.27846 13.46274 12.66861 11.06677 10.42407 10.06894 10.00034 10 12.93068 20.85779 22.55685 20.23554 23.54417 25.89495 25.03014 21.18603 25.26435 28.61742 30.39646 31.18217 30.03318 -9999 -9999 -9999 -9999 -9999 -9999 -9999 -9999 -9999 -9999 -9999 -9999 -9999 -9999 -9999 -9999 -9999 -9999 -9999 -9999 -9999 -9999
-9999 -9999 -9999 -9999 -9999 -9999 -9999 -9999 -9999 -9999 -9999 -9999 -9999 88.48822 67.96056 61.99438 56.89378 50.62347 47.84045 45.53561 43.71085 43.57022 47.97734 51.60995 55.11983 56.01567 49.89229 48.84922 48.52529 48.05613 46.13693 44.43017 43.17167 43.6727 44.72799 45.06974 45.15332 44.77382 43.06799 42.0386 41.12714 40.06844 38.07213 38.62693 39.66412 42.70776 44.47847 40.08921 38.71404 37.45224 37.44529 38.04285 38.3205 37.59596 36.21024 36.49208 36.73036 36.74228 35.92041 35.02281 33.91721 32.8128 30.53627 29.58539 29.02477 29.00883 29.00883 29.00883 29.00883 29.00883 29.00883 29.00883 29.00883 29.00883 29.00883 29.00883 29.00883 29.00883 29.20918 29.9969 29.84816 29.65473 29.24897 29.07188 28.95236 28.84062 28.52062 28.33017 28.14279 28.31373 29.66907 30.81682 31.66572 32.57852 30.91986 30.26253 30.13822 30.79657 32.41508 31.97808 30.50735 29.42522 28.96881 29.85215 30.57084 29.89313 29.7496 30.72134 33.22174 35.38766 33.17507 30.79993 29.48286 28.67722 27.37244 26.03939 24.7705 23.57036 21.59113 21.11589 21.53524 22.6556 24.93599 26.02766 27.10713 28.69308 31.58536 32.34275 31.76786 32.3453 30.9643 29.4972 29.48675 29.82003 23.44756 19.98435 19.75666 19.52178 19.19449 19.45003 19.77737 20.41112 23.76357 24.72538 25.20173 25.07553 23.64891 22.88972 21.6677 20.47387 20.48182 20.94732 19.8753 18.55198 18.65694 19.86974 24.11813 24.40261 18.54212 19.91096 22.35749 24.86887 25.89251 26.64585 27.19201 27.19608 25.84329 25.10493 25.05719 23.51144 21.60081 20.88 19.14782 15.59172 13.50183 13.8849 15.20844 18.67285 21.83253 21.44275 20.04818 16.51254 19.32293 21.52007 22.86946 22.97993 19.21019 19.21019 20.02324 22.75668 22.69216 21.22582 20.35585 19.27172 17.21477 18.31693 19.665 21.22459 24.55709 25.30134 25.54097 24.73519 22.58414 21.80326 20.61664 20.2176 20.10306 21.16776 22.30043 22.04098 20.72549 20.19641 18.92806 17.55175 15.41228 14.53047 13.72114 12.97966 11.72933 11.26263 10.87367 10.53712 10.78679 13.15694 19.62615 20.05396 16.33398 18.35077 18.71178 17.38026 20.24779 25.36817 29.11968 30.36083 -9999 -9999 -9999 -9999 -9999 -9999 -9999 -9999 -9999 -9999 -9999 -9999 -9999 -9999 -9999 -9999 -9999 -9999 -9999 -9999 -9999 -9999 -9999 -9999
-9999 -9999 -9999 -9999 -9999 -9999 -9999 -9999 -9999 -9999 -9999 -9999 92.20648 83.37677 65.51573 60.09823 56.72857 54.3264 48.81997 46.77024 45.46714 45.25762 48.73208 50.9623 52.79565 53.50772 50.73834 49.87823 48.40988 47.26113 46.00317 44.99725 45.05031 45.58499 46.64005 47.04604 47.11736 46.5244 44.09406 42.94584 41.98537 39.96994 38.60498 39.11554 40.97353 45.25606 45.11763 40.59822 38.54311 37.55291 38.84499 39.5749 40.5054 39.29187 36.5026 37.39967 38.13142 38.37105 37.26532 36.20946 35.1146 34.00756 31.80365 31.00641 30.04599 29.04479 29.33359 29.06985 29.00883 29.00883 29.00883 29.00883 29.00883 29.00883 29.00883 29.00883 29.00883 29.00883 29.15725 30.45023 29.89746 29.6885 29.22152 29.0065 28.84425 28.72368 28.2859 27.99709 27.77663 27.79235 29.47644 30.30392 31.35951 31.60592 29.94504 29.85186 29.8492 29.98727 31.34515 31.89915 30.60027 29.50719 28.52585 29.07872 29.4126 29.33947 29.83809 31.45647 33.07078 34.61686 33.39348 30.75858 29.09609 28.14696 26.53208 25.50962 24.56302 23.42107 21.33144 20.70641 20.42278 21.14629 23.90154 25.26346 26.72347 28.43938 30.89945 31.06054 29.90491 29.82648 32.48865 32.21708 31.50628 31.29239 25.14979 21.27808 19.88767 19.66871 19.12335 19.23554 19.5874 19.97741 23.14975 24.53441 25.67341 26.41872 25.73814 24.46758 22.86935 20.83769 18.62888 19.49932 19.98293 18.51419 18.34445 19.64176 23.59436 21.866 19.44203 21.62935 24.15569 25.93988 24.62362 25.32943 26.47898 27.24434 26.1532 25.00492 23.40627 22.3565 21.1321 20.61022 18.29286 14.76907 14.23701 13.49282 14.23652 17.48563 21.21813 20.83171 18.72569 15.06062 19.77273 21.76964 23.44347 22.8048 19.24662 19.21019 19.99296 23.74445 23.43026 20.24126 19.09208 18.30535 16.68885 18.01067 19.89122 21.21197 24.11481 25.01025 25.8689 25.76962 23.86299 23.18143 22.35352 21.98213 22.02769 22.66667 23.01623 21.33096 19.46672 18.55481 17.74638 16.88392 15.15699 14.41097 13.72389 13.08814 12.00962 11.6111 11.27099 10.89239 10.27107 10.95338 16.58567 17.68399 13.56543 14.28417 15.20696 16.89368 20.87773 23.69189 26.20037 28.1853 -9999 -9999 -9999 -9999 -9999 -9999 -9999 -9999 -9999 -9999 -9999 -9999 -9999 -9999 -9999 -9999 -9999 -9999 -9999 -9999 -9999 -9999 -9999 -9999
-9999 -9999 -9999 -9999 -9999 -9999 -9999 -9999 -9999 -9999 -9999 -9999 88.34785 77.26057 62.5687 58.05833 54.65732 50.84736 47.87112 47.05685 46.42271 46.2126 48.42733 50.16935 51.02304 51.51917 51.92053 51.70528 49.25718 47.37459 46.73109 46.83356 47.34009 47.62265 48.5081 49.05792 49.2218 47.86503 44.42002 43.08581 41.77008 40.34703 39.00306 39.59126 44.06667 48.8301 45.61347 40.3464 38.2225 37.96239 40.31752 41.88683 41.26272 39.20546 37.25574 38.49724 39.60247 40.26366 38.50739 37.36273 36.24152 35.18288 33.52304 33.33836 33.28944 34.20575 33.80466 31.52332 29.54394 29.01048 29.00883 29.00883 29.00883 29.00883 29.00883 29.00883 29.00883 29.00883 29.20112 29.91541 29.87094 29.70502 29.1754 28.91394 28.67657 28.51589 27.7222 27.704 27.72366 27.72366 29.1393 29.8222 30.69038 30.545 29.81413 29.70077 29.66449 29.78195 30.34213 31.10696 30.56117 29.42036 27.67452 27.97653 28.25002 28.50816 29.94879 30.89146 31.3115 33.07489 34.12406 31.52444 29.75817 29.806 26.85798 26.04752 25.00097 23.70988 20.96528 20.37803 20.32968 20.36094 23.12257 24.57277 26.03904 27.52363 29.81664 30.13886 28.70934 28.42166 30.25544 32.01196 32.53586 31.41586 26.85493 23.3028 20.23108 19.88179 19.29174 19.03765 19.36684 19.79357 22.69982 24.4975 26.29115 28.0635 28.17303 26.59175 24.89903 22.98702 19.89582 18.12419 17.84276 17.35893 18.47228 19.92852 24.48281 19.62074 20.89993 23.41093 25.16769 23.4827 22.25052 23.64579 25.4494 27.28827 25.66335 23.66134 21.31357 20.22594 19.44825 18.7365 15.89424 15.88754 16.62055 14.9248 12.91147 14.84324 20.10206 20.55151 17.49228 13.48784 20.3654 21.80991 23.0214 22.13441 19.78988 19.22399 20.36199 23.58916 24.00702 21.20458 19.13037 17.71488 16.63847 17.05325 19.096 20.77598 22.9175 23.44241 24.36254 25.20754 24.62265 24.12434 23.93001 23.78502 23.29544 23.51301 23.14654 21.17293 18.55129 17.30902 15.78243 15.81326 14.91289 14.32862 13.75573 13.20447 12.23426 11.81769 11.44391 11.07767 10.03518 10.00002 12.42338 12.97363 13.62039 17.5874 20.10419 21.17025 22.64622 23.8759 25.91411 26.80327 -9999 -9999 -9999 -9999 -9999 -9999 -9999 -9999 -9999 -9999 -9999 -9999 -9999 -9999 -9999 -9999 -9999 -9999 -9999 -9999 -9999 -9999 -9999 -9999
-9999 -9999 -9999 -9999 -9999 -9999 -9999 -9999 -9999 -9999 -9999 -9999 79.74859 72.26667 59.97257 56.8757 53.77758 50.69553 48.95599 47.47026 47.55886 47.44498 47.72712 49.79525 50.62098 52.28015 52.60816 51.3728 49.31133 47.61464 48.10464 49.07095 49.81802 49.93063 50.30962 50.79554 50.5279 47.96448 44.12846 42.75386 41.62017 40.8625 39.46 39.97599 45.98491 50.83762 44.80551 39.63537 37.98143 38.87694 42.59733 43.56285 40.29526 38.49818 38.37487 39.7985 41.41336 41.8882 39.33582 37.97496 36.8663 35.94117 35.61226 35.91004 36.59121 38.48598 36.80752 34.13412 31.8378 29.66754 29.00883 29.00883 29.00883 29.00883 29.00883 29.00883 29.00883 29.00883 29.57455 30.09125 30.16308 29.74045 29.13799 28.82707 28.49578 28.10003 27.65713 27.70727 27.72366 27.73418 28.98127 29.56363 29.94818 29.88609 29.62579 29.51368 29.45683 29.58518 29.89094 30.15328 30.31281 29.29062 27.09816 27.10591 27.28029 27.87454 29.45457 29.7731 29.96379 31.58644 34.14176 32.79945 31.40279 30.86785 27.65956 27.69817 26.32697 24.57251 20.46614 20.32968 20.32968 20.32968 22.4324 23.78172 25.11772 26.42872 28.23964 28.30809 27.37593 26.71659 29.47482 31.0147 32.05529 31.65359 28.90425 25.7068 23.19784 21.42301 19.49825 19.09995 19.11392 19.57341 22.10101 24.31209 26.7313 29.47946 30.12384 29.03689 27.55988 25.51453 22.06506 19.9986 17.77084 16.64126 18.94864 21.6131 21.79372 17.47949 22.22773 24.41476 23.088 20.94372 20.22027 22.5753 24.50757 26.11349 23.77022 21.72601 20.07951 16.64197 16.20533 16.29844 18.29185 20.05981 20.00146 17.6611 14.30086 11.77364 17.47771 19.26038 16.15009 13.55938 20.4913 21.69665 22.44827 21.40909 18.39014 18.9325 21.07445 23.65885 24.74133 21.9584 19.6958 18.97512 16.63929 15.74636 17.72817 19.73388 21.18146 21.48467 22.87074 24.43196 24.92161 24.54619 24.72352 24.85146 23.58712 23.73185 23.44988 21.66231 19.14502 17.07868 15.43314 15.43314 14.8749 14.40482 13.90193 13.39305 12.41894 11.9554 11.49563 10.91945 10 10 10 10.66311 13.30343 17.17767 19.47025 19.53013 22.88809 25.20309 28.15145 30.03725 -9999 -9999 -9999 -9999 -9999 -9999 -9999 -9999 -9999 -9999 -9999 -9999 -9999 -9999 -9999 -9999 -9999 -9999 -9999 -9999 -9999 -9999 -9999 -9999
-9999 -9999 -9999 -9999 -9999 -9999 -9999 -9999 -9999 -9999 -9999 -9999 -9999 64.13598 58.48212 55.49773 52.87983 51.08035 49.48046 50.33887 51.3824 51.42437 48.49147 48.40664 49.99957 53.82416 53.10032 49.54389 50.21925 51.39042 52.76534 53.62025 54.37296 54.98661 53.44299 51.86963 48.87312 43.68244 42.62732 42.19533 41.96462 41.96248 43.25644 45.89371 49.60144 53.17044 40.28101 39.13681 38.82209 40.00258 46.48162 44.07397 40.66914 37.2443 39.2047 42.55098 44.15973 40.66152 38.2622 37.76986 37.29316 36.9742 37.413 38.56224 40.11102 42.50099 40.0177 38.36003 36.83102 35.50416 29.00883 29.02999 30.10111 31.17288 34.82351 34.80927 32.62203 31.55925 31.40967 31.87598 31.0589 29.89733 29.19286 28.83171 28.48515 28.21688 28.05037 28.0355 28.00428 28.06427 28.90456 29.20123 29.30931 29.27914 29.07954 29.00359 28.99376 29.05826 29.27318 29.23527 29.04242 28.61517 27.53936 27.37009 27.43934 27.63948 28.91404 29.58381 29.9317 29.60818 34.16575 34.1962 32.89082 30.85609 30.34049 30.78429 30.3281 28.94247 22.10271 20.32968 20.32968 20.32968 20.6948 21.80021 22.91099 23.81438 24.72473 24.68441 24.68896 25.10603 28.19669 30.28239 30.78372 29.84031 29.77507 27.84982 25.73048 23.69413 20.49623 19.63453 19.07838 19.02786 19.90888 21.78311 24.83716 28.05798 33.08639 31.08169 28.78735 26.08941 20.14081 19.00665 17.69981 16.31801 19.139 20.8373 17.75033 18.50621 23.07436 21.9192 19.95344 17.30124 21.77696 22.56667 22.33223 21.84885 19.42947 20.28608 20.68324 19.29573 19.40238 21.03618 22.02794 22.8858 21.31035 20.17472 15.6889 11.14037 11.68837 12.10876 12.36217 14.16497 19.25186 20.23739 20.36085 19.71372 16.94779 19.57333 21.88679 23.81508 25.41374 24.47233 22.7702 21.50148 18.92635 16.45918 14.79786 16.16068 18.01496 19.88226 21.44382 22.98536 24.89707 22.31322 20.82927 21.04502 21.40679 21.74583 22.53455 22.95888 21.25362 20.23823 18.2292 16.92035 15.58909 14.98489 14.39468 13.81822 12.70888 12.16473 11.58642 10.92278 10 10 10.12007 14.86075 14.50401 14.84423 15.99981 17.14668 21.52086 24.71865 27.00569 29.60837 -9999 -9999 -9999 -9999 -9999 -9999 -9999 -9999 -9999 -9999 -9999 -9999 -9999 -9999 -9999 -9999 -9999 -9999 -9999 -9999 -9999 -9999 -9999 -9999
-9999 -9999 -9999 -9999 -9999 -9999 -9999 -9999 -9999 -9999 -9999 -9999 -9999 -9999 57.76491 54.65895 51.43535 50.44522 51.01388 52.70789 53.57126 53.30119 49.85527 48.83887 49.70874 53.68447 54.90244 52.50185 53.19463 54.55337 55.84489 56.31045 56.23974 55.72933 52.32001 50.75737 47.3432 42.73153 42.54735 42.49206 42.6401 42.92311 45.43361 48.98553 52.46845 52.65873 40.09133 39.50896 39.48986 41.41814 46.94879 44.99326 41.49522 37.2443 41.42122 44.14016 43.76624 40.2694 38.00748 37.90609 37.62064 37.4175 37.78812 38.84503 40.23266 43.12399 40.25137 39.09012 38.27018 37.07408 29.54529 30.925 32.74097 33.67559 34.82351 34.43067 33.2238 32.3565 31.84682 32.38724 31.61483 30.07807 29.31291 28.9582 28.65556 28.47391 28.3794 28.36617 28.33611 28.29314 28.79468 28.99465 29.04018 28.99275 28.79664 28.72768 28.72526 28.79778 28.94498 28.88526 28.69069 28.37916 27.82987 27.7599 27.8616 28.1344 29.06206 29.70699 29.96463 29.60818 32.77338 33.85918 33.4299 31.63025 31.8935 31.88404 30.72036 29.39366 23.44665 20.94094 20.32968 20.18177 19.83572 20.69908 21.71213 22.46565 23.16014 23.16851 23.34856 23.93275 26.86331 29.51181 30.15542 28.9397 28.59223 27.35238 25.75634 24.0333 21.20032 19.79085 19.23877 18.79573 19.68429 20.27434 23.49207 26.41171 30.6474 31.394 28.73567 25.89052 20.65978 19.83104 18.40425 16.75002 18.01247 18.23944 16.61938 18.97081 22.3179 21.06517 18.83421 17.40188 21.60208 21.8971 21.13854 20.15132 19.42947 24.83883 23.34253 22.33448 22.11989 22.95468 23.62232 24.03102 21.49879 19.60385 16.2209 12.44309 10.80968 10.81003 11.8853 13.6899 17.3451 18.16017 18.37403 17.27474 18.16132 20.55888 22.4505 24.13222 25.13654 25.45539 23.93829 22.32109 19.35742 16.90034 14.96282 15.07958 18.38747 20.49147 21.75522 22.72599 22.9624 20.46529 20.34953 20.12785 19.64567 20.15958 21.19682 22.0194 21.68896 20.59512 18.87704 17.64155 15.94391 15.23786 14.57517 13.94563 12.76694 12.21705 11.68026 11.03629 10 10 10.40828 19.39129 15.84194 18.00328 19.78126 19.30587 20.59954 22.74625 25.17756 28.84545 -9999 -9999 -9999 -9999 -9999 -9999 -9999 -9999 -9999 -9999 -9999 -9999 -9999 -9999 -9999 -9999 -9999 -9999 -9999 -9999 -9999 -9999 -9999 -9999
-9999 -9999 -9999 -9999 -9999 -9999 -9999 -9999 -9999 -9999 -9999 -9999 -9999 -9999 57.26002 54.23399 50.53858 50.44522 53.35955 55.30851 56.20483 55.70766 51.27834 50.0494 50.1424 53.52442 56.9698 56.34392 56.45262 57.92107 58.98172 58.40786 56.96231 55.21828 50.84288 48.91438 45.1016 42.68973 42.68973 43.21419 43.79309 44.06609 47.31448 50.97904 54.04283 52.43781 41.84951 40.33757 40.17448 42.88355 48.51569 46.03257 42.6662 40.53785 43.44588 45.39656 43.04139 39.98205 38.6391 38.37347 38.1257 37.90996 37.91204 38.90847 39.79925 42.99483 41.05992 39.1146 38.78435 38.45656 34.10685 34.72701 36.16738 36.63464 35.26474 34.54427 33.54926 32.66004 31.72439 31.68434 31.22981 30.52956 29.42927 29.08549 28.83892 28.73636 28.71838 28.70668 28.67359 28.61492 28.63437 28.77793 28.78954 28.72499 28.50584 28.43229 28.44119 28.52391 28.66517 28.60671 28.44666 28.28735 28.0447 28.05105 28.207 28.47249 29.30779 29.91371 29.82667 29.60846 31.2117 32.5335 33.48403 33.882 33.32738 32.08974 30.23878 28.90146 25.59517 23.36882 20.90788 19.40125 19.20518 19.70117 20.51234 21.12186 21.65647 21.72536 21.89571 22.46317 25.42179 27.93978 28.98465 28.75036 28.00579 26.89625 25.50381 23.96297 20.98394 19.80598 19.28359 18.8867 19.53531 19.9535 22.31718 24.90308 29.18506 30.77791 29.15202 26.88199 23.01192 21.68083 19.94767 18.1479 16.06455 16.29532 16.68534 18.56279 21.47733 20.44735 17.80155 16.95924 19.63077 20.04787 19.95241 19.42947 19.42947 25.0666 25.87548 24.9324 24.3646 24.76899 24.5661 24.42972 22.6058 20.1511 17.42919 13.77596 10.80968 10.8414 11.28398 12.71573 15.26671 15.78996 15.83578 15.11698 19.61171 21.33567 23.15215 23.77998 23.31216 24.0286 24.52066 22.95524 19.30122 17.19574 14.99437 14.38293 18.56276 20.61657 21.86747 22.46375 22.04 20.6512 20.19728 19.89813 18.39095 18.78137 20.10418 20.8669 21.85119 20.67077 19.33797 18.12012 16.2275 15.43605 14.70526 14.0223 12.77975 12.23047 11.74284 11.22099 10.00047 10 10.31181 21.39314 17.28957 20.91973 22.59242 23.05086 24.38759 25.33362 26.12556 29.03907 30.47672 -9999 -9999 -9999 -9999 -9999 -9999 -9999 -9999 -9999 -9999 -9999 -9999 -9999 -9999 -9999 -9999 -9999 -9999 -9999 -9999 -9999 -9999 -9999
-9999 -9999 -9999 -9999 -9999 -9999 -9999 -9999 -9999 -9999 -9999 -9999 -9999 -9999 57.28187 55.85357 52.73078 51.67346 56.45377 58.33218 59.21996 58.24469 51.94101 50.86904 50.91784 52.99345 57.66814 58.75824 59.60543 60.88063 60.8237 58.8256 56.56073 54.28479 49.79482 46.79813 43.25506 42.68973 43.15921 45.50229 46.25183 46.15911 48.09191 51.65358 55.32187 52.04408 42.62617 42.62617 42.52962 43.48661 50.49846 46.98563 44.31863 43.15875 45.37184 46.00647 42.27046 39.75402 39.49469 39.07784 38.81786 38.59542 38.16224 38.97099 39.70241 41.89586 41.67498 39.40734 39.84214 40.78013 38.06986 38.47 39.81523 39.2921 36.52025 35.06208 33.88439 32.82555 31.34355 30.94013 30.45944 30.00944 29.45697 29.18495 29.01538 29.02984 29.07213 29.05532 29.00627 28.89639 28.57214 28.59161 28.57413 28.47716 28.20301 28.11623 28.1391 28.24227 28.42447 28.38557 28.30235 28.24824 28.2107 28.28955 28.48765 28.75962 29.51381 29.97785 29.86153 29.77561 30.13626 30.68184 31.07807 31.4124 33.59583 31.96797 29.83185 28.77639 28.21605 25.96763 23.00471 20.31091 19.17999 19.17999 19.25459 19.56529 20.29499 20.45257 20.49516 20.68741 24.0551 26.21643 27.30105 27.82218 27.54787 26.56985 25.21484 23.69304 20.54369 19.77355 19.287 18.86709 19.42964 19.87194 21.53437 24.07857 28.07333 29.27398 29.24739 28.12433 24.79393 23.13424 21.30664 19.70608 16.35907 15.40831 15.96686 17.49442 19.95845 19.91912 17.36436 15.93678 17.1918 17.47207 17.94014 19.19459 19.48574 24.02423 26.274 26.01721 25.9195 25.543 24.43888 23.96459 24.26117 21.887 19.46364 15.84216 10.80968 10.97714 11.51344 11.79502 13.49505 14.05617 14.57392 15.09986 20.22549 21.76572 22.92408 21.96867 20.86447 22.17782 24.2079 23.49135 19.64657 17.46328 15.08468 14.19052 18.42082 20.30282 22.09734 22.40737 21.85983 22.30534 21.34468 20.81051 18.04401 17.01055 18.08805 19.67964 21.41494 20.66074 19.69461 18.44231 16.40708 15.54881 14.76407 14.03764 12.73939 12.18927 11.75422 11.47756 10.0094 10 10.01976 20.10373 18.16905 21.82344 24.34228 25.86168 26.9672 27.57833 27.91583 27.83095 28.50917 29.30121 29.5348 -9999 -9999 -9999 -9999 -9999 -9999 -9999 -9999 -9999 -9999 -9999 -9999 -9999 -9999 -9999 -9999 -9999 -9999 -9999 -9999 -9999
-9999 -9999 -9999 -9999 -9999 -9999 -9999 -9999 -9999 -9999 -9999 -9999 -9999 -9999 60.71231 61.08774 59.42122 57.05943 60.76521 62.8291 62.82472 60.12944 51.83529 51.83529 51.83529 51.83529 56.25346 60.39455 63.24996 64.11107 59.29409 57.40699 55.38733 53.30108 49.73509 47.70718 47.05039 47.25246 49.43797 50.21502 52.70879 51.61243 49.57244 53.6914 54.76542 49.53418 42.62617 44.33887 44.66464 43.40108 50.75069 48.13214 46.74027 46.63268 47.56236 46.62918 44.81556 43.92544 43.17665 41.87484 41.78782 41.88348 41.36458 39.81723 39.13958 39.13958 46.25314 47.64437 46.89039 43.39494 39.28486 40.68859 43.12487 42.8486 37.98815 36.36676 34.70325 33.09619 30.25374 29.89379 29.68093 29.52309 29.59615 29.69115 29.78288 29.82704 29.83968 29.75655 29.58444 29.3294 28.7953 28.54972 28.33309 27.95363 27.51493 27.40195 27.48022 27.68908 28.04258 28.09591 28.15437 28.24569 28.48551 28.68789 28.91328 29.14824 29.60085 29.63969 29.42908 29.13486 28.50939 28.30105 28.56367 29.27423 31.8192 32.74969 31.89023 31.46182 29.44247 27.75321 25.28549 23.62794 19.49561 19.17999 19.17999 19.17999 19.17999 19.4622 19.95489 19.82961 21.57424 22.9735 24.4008 25.60511 26.93571 26.27865 24.72705 22.97182 19.85773 19.44271 19.00322 18.65148 19.28955 19.86265 21.53289 23.19703 25.5925 26.30886 26.85786 27.44227 28.03939 26.04646 23.99563 22.03339 18.45802 16.66405 15.71385 15.33383 15.49602 15.60168 15.00168 13.65217 12.70469 12.61328 12.69357 15.59222 20.23667 21.97923 23.73643 24.8822 24.29374 22.74028 21.02368 19.92513 22.22661 24.07648 21.7582 20.73996 18.09674 15.5992 15.04509 14.07968 12.2045 11.80704 12.88953 14.55043 19.47759 21.14541 20.95902 19.50162 19.43393 21.61406 23.817 22.52707 19.09558 16.48821 13.90107 14.42575 19.97819 21.30273 22.06312 20.84209 20.36442 21.24245 23.09196 22.8512 20.69119 19.30479 16.51944 16.50025 20.2781 20.03234 19.3636 18.33097 16.30714 15.41034 14.58157 13.80954 12.4125 11.81902 11.33485 10.84224 10 10 10.01679 13.17779 15.13913 20.85063 22.99038 23.59535 20.08465 21.22673 21.0833 19.71009 24.31879 25.99458 26.92115 27.66819 -9999 -9999 -9999 -9999 -9999 -9999 -9999 -9999 -9999 -9999 -9999 -9999 -9999 -9999 -9999 -9999 -9999 -9999 -9999 -9999
-9999 -9999 -9999 -9999 -9999 -9999 -9999 -9999 -9999 -9999 -9999 -9999 -9999 -9999 63.24339 63.6479 60.93315 58.54813 62.46134 65.29752 63.93558 60.6957 51.83529 51.83529 51.83529 51.83529 56.20219 60.25637 63.83333 64.69688 58.85681 56.97982 55.02992 53.08173 49.41248 49.18876 50.25826 50.32661 51.86731 52.75871 54.37854 53.64789 53.07632 56.10223 53.64341 48.63979 45.70362 50.03171 50.76706 48.91284 51.82258 48.62129 47.38459 48.17013 48.99462 47.64936 46.79197 46.76857 45.87264 45.01334 44.87082 45.08772 44.80109 42.66083 40.14478 40.37782 48.93623 51.6245 48.67535 44.13941 39.80473 42.8646 45.43167 43.32658 38.45095 37.29848 35.49904 33.52895 29.9662 29.80743 29.64748 29.6984 30.16636 30.86179 31.61182 32.06811 31.18011 30.26859 29.76798 29.42522 28.80855 28.51547 28.15084 27.59496 27.21702 27.21702 27.22795 27.41736 27.87904 28.01709 28.13098 28.27733 28.63602 28.86537 29.06245 29.24777 29.33443 29.1034 28.71078 28.30996 27.55829 27.38466 27.81711 28.76351 30.68135 31.61648 31.54041 30.97327 28.93573 28.10721 27.8476 27.28462 23.40768 20.7486 19.18401 19.17999 19.17999 19.19005 19.85766 19.7121 20.01548 21.24715 22.86492 24.32813 26.90232 26.36673 24.65439 22.79802 19.76834 19.32642 18.82801 18.48015 18.99244 19.85399 21.58178 22.62319 24.32908 24.74159 25.12956 25.74521 28.15339 27.02323 24.97212 22.82129 18.71295 17.1322 16.7909 16.31171 14.98305 14.3841 13.42847 12.85182 12.5385 12.5385 12.72487 15.1691 19.26664 20.70642 22.52618 24.09665 23.16547 21.45208 19.85515 18.78226 21.07017 23.61295 23.09951 22.08112 20.3087 17.80209 17.07266 15.90504 12.58218 11.04545 12.15897 13.89474 17.39777 20.3416 20.0571 17.42609 19.94869 21.65619 23.33126 21.90219 18.0514 16.01903 14.09049 14.2698 19.63625 21.0648 21.17623 20.03422 18.96357 19.88379 22.45542 22.47096 20.85558 19.4597 16.11309 16.16014 18.79086 18.93197 18.51371 17.79166 15.98938 15.12031 14.29616 13.51704 12.04815 11.3379 10.66337 10.1427 10 10 10 11.89848 16.88583 20.60115 22.46113 22.26407 15.69834 15.1839 19.5925 19.39218 23.94689 25.33346 26.46059 27.2611 -9999 -9999 -9999 -9999 -9999 -9999 -9999 -9999 -9999 -9999 -9999 -9999 -9999 -9999 -9999 -9999 -9999 -9999 -9999 -9999
-9999 -9999 -9999 -9999 -9999 -9999 -9999 -9999 -9999 -9999 -9999 -9999 -9999 -9999 64.36233 65.70042 64.20443 60.66161 66.06455 67.23729 63.67427 59.74126 51.96243 51.83529 52.01645 53.24827 57.74899 60.1843 64.16942 65.44495 58.58212 56.65873 54.84212 53.20438 51.26786 52.67355 54.49463 52.99794 53.79597 55.52802 56.51714 55.70105 54.94299 55.30598 53.24939 49.08025 49.45248 52.13011 54.32743 52.32011 50.67146 49.83739 49.45262 50.67535 50.90286 48.34875 49.47163 49.72768 48.68872 47.96942 47.88287 48.25595 49.049 48.23631 46.7061 46.04113 49.41339 54.20236 50.19212 44.87542 42.83764 45.88725 45.78454 44.26416 40.91342 39.03523 36.24113 33.82703 29.94331 29.87206 29.83583 29.93883 32.97086 34.05378 34.94539 35.24701 32.51814 30.78949 29.78958 29.41717 28.84823 28.56134 28.21722 27.80602 27.2307 27.21702 27.21702 27.21702 27.66994 27.94479 28.15091 28.35193 28.80771 29.03339 29.17929 29.26814 28.88004 28.41729 27.91916 27.43565 26.6635 26.57762 26.79208 27.57489 29.85344 30.43818 30.04137 29.2601 26.58833 29.58334 29.98633 30.08765 27.72035 25.11813 22.20992 19.52362 19.17999 19.17999 19.88564 19.6224 19.78833 20.02438 21.41815 22.94973 25.87492 26.21827 25.03753 23.27998 19.85846 19.27298 18.67315 18.18146 18.45648 19.10582 19.93752 21.10667 23.07891 22.9769 23.09106 23.72413 26.87005 27.13263 25.87277 23.57224 19.14371 18.34971 18.55425 18.37487 16.54386 15.57071 13.31159 12.5385 12.5385 12.5385 12.94927 14.61414 18.32285 20.00378 21.68797 23.26706 22.43095 20.76891 19.42323 18.25081 19.93303 21.80432 22.74836 22.8092 20.72686 19.78202 19.37509 17.54309 13.16219 11.41166 12.03946 13.60595 14.64342 14.76251 17.73841 15.95273 19.0903 21.30471 23.00841 21.96879 18.27356 16.23469 14.6333 14.33908 18.59304 20.34553 20.40435 19.15447 18.16752 19.73959 22.53436 22.00659 19.66177 17.63072 15.05827 15.62122 17.47993 17.68758 17.47709 16.99196 15.50644 14.68529 13.88219 13.10032 11.55225 10.70716 10.01303 10 10 10 10.41866 13.3534 18.2304 20.75471 21.51767 21.06815 15.18031 15.18031 20.19544 20.91122 25.25741 26.09381 26.67897 -9999 -9999 -9999 -9999 -9999 -9999 -9999 -9999 -9999 -9999 -9999 -9999 -9999 -9999 -9999 -9999 -9999 -9999 -9999 -9999 -9999
-9999 -9999 -9999 -9999 -9999 -9999 -9999 -9999 -9999 -9999 -9999 -9999 -9999 -9999 64.5702 67.16686 68.49344 67.58215 69.45634 66.70229 62.93711 59.16462 55.24591 55.58458 55.18082 56.2108 58.99604 60.29471 64.98302 65.67237 58.4294 56.44298 54.90945 53.78312 54.46872 57.25437 58.92938 56.13039 55.41188 57.95981 59.13616 57.50709 55.63778 55.29536 53.75993 51.12509 53.09715 55.00396 57.73896 57.46266 50.73401 50.70648 50.47444 54.42054 53.97741 51.72837 54.12381 54.5603 52.40005 51.31409 51.40804 52.15147 53.49591 53.1146 51.86145 49.37682 50.74415 55.01814 49.13382 46.12891 47.33607 43.62551 42.40394 42.09669 39.96776 38.28552 35.82888 33.35543 30.44491 30.31672 30.5118 33.14104 36.12985 37.03101 36.76245 34.09264 30.35873 29.85602 29.63871 29.32811 28.93336 28.69966 28.42931 28.12371 27.56539 27.34617 27.26403 27.21777 27.67072 28.00001 28.28866 28.53031 28.99016 29.21059 29.25989 29.14689 28.2336 27.63363 27.06302 26.51502 25.73058 25.58465 25.65671 26.13256 27.61835 27.71846 26.70823 25.16541 26.70097 30.21834 30.53607 30.47103 30.15367 29.61448 25.92461 21.96192 19.17999 19.36015 19.90816 19.6394 19.57048 19.79729 20.30737 21.73002 24.50933 25.26336 25.08994 24.13809 20.15348 19.361 18.55237 17.80185 17.53245 17.5961 18.99656 20.44574 21.52803 20.71233 20.65286 21.71017 25.5968 27.01014 26.78791 24.55278 20.07978 19.65102 20.16309 20.67275 18.48901 18.10081 16.73154 17.01297 13.11071 12.5385 12.74871 13.88302 17.66706 19.67988 21.27676 22.43236 21.87049 20.79713 19.43247 17.80483 19.15927 20.41981 21.54318 22.40734 21.80722 21.14158 20.04373 17.89784 12.92089 11.63141 12.43665 14.04942 16.31475 20.04204 19.99288 16.37867 17.74547 20.59546 21.60572 22.3098 18.85727 16.70784 14.76368 13.81507 17.00126 18.23444 18.40487 17.33651 18.62348 20.33938 21.65869 21.08945 17.96023 16.15225 14.39162 14.98787 16.38308 16.60012 16.48541 16.12038 14.88503 14.12116 13.35204 12.582 10.98185 10.10252 10 10 10 10 11.61712 12.74315 16.9552 19.26777 19.47759 18.78031 16.98863 20.74152 22.12268 22.37718 25.88891 26.69363 27.0764 -9999 -9999 -9999 -9999 -9999 -9999 -9999 -9999 -9999 -9999 -9999 -9999 -9999 -9999 -9999 -9999 -9999 -9999 -9999 -9999 -9999
-9999 -9999 -9999 -9999 -9999 -9999 -9999 -9999 -9999 -9999 -9999 -9999 -9999 -9999 -9999 -9999 67.73301 71.79483 70.24026 66.78838 63.6605 60.85876 60.0462 59.3522 59.90463 61.4072 63.8976 65.82974 68.41952 65.05258 58.61305 56.00056 55.47462 57.70582 59.59053 64.26455 64.67482 60.05679 58.85102 62.39362 62.50438 58.8841 57.06537 58.03284 58.60218 56.42028 56.20324 58.42663 62.50007 65.60583 56.37476 54.9538 59.90862 65.02912 64.62752 64.97472 68.59322 68.71071 66.10415 67.12018 66.81889 65.96244 66.0908 65.27127 64.58827 63.60199 59.02135 55.2791 51.46494 49.02079 43.64718 39.87326 38.72943 37.32502 35.59681 34.59861 33.16482 31.76075 35.05653 37.40039 40.6195 41.47129 39.43541 35.63107 32.39653 29.94988 29.72355 29.69436 29.72687 29.53945 29.37346 29.27371 29.123 28.9245 28.35333 28.05721 27.82006 27.75572 28.13287 28.40287 28.66276 28.89166 29.21422 29.2975 28.8773 28.02762 26.5656 25.87621 25.21392 24.57565 23.60558 23.29048 23.11404 23.16557 23.07483 22.35513 20.81517 20.19524 27.85471 30.32731 30.49685 30.23436 30.16755 30.05069 24.23287 23.37911 19.66962 19.1966 19.74886 19.81269 19.36998 19.32435 19.61108 19.95707 21.94026 22.84475 23.72357 24.65343 22.71825 20.9213 19.43087 17.58558 17.54328 18.1043 18.57812 19.32257 19.43704 19.26828 19.44171 19.83285 22.46362 24.11971 25.43206 26.24393 26.05443 25.46475 25.1871 24.71901 23.82759 23.68862 22.91909 22.29493 17.87368 15.08983 13.6549 13.0646 16.49148 18.78206 20.32193 21.61442 19.92729 19.06605 18.00097 16.84761 16.8659 18.42345 19.96995 19.88798 18.59953 19.17132 18.96382 16.61062 11.84221 10.64388 12.81672 15.30812 20.62587 22.79637 22.19717 19.13396 13.10351 15.17266 17.49975 19.7081 20.20137 18.00425 15.42711 12.91716 13.01666 13.75942 14.35872 14.95904 17.57301 18.81968 19.61059 20.16812 17.33305 15.40808 14.3955 14.29537 14.66552 14.80888 14.75498 14.48162 13.44954 12.7601 12.0618 11.37468 10.03641 10 10 10 10 10 10.07139 10.0856 10.03257 10.03304 10.03304 15.63728 18.8178 18.15494 19.12199 20.77435 25.02192 27.62111 -9999 -9999 -9999 -9999 -9999 -9999 -9999 -9999 -9999 -9999 -9999 -9999 -9999 -9999 -9999 -9999 -9999 -9999 -9999 -9999 -9999 -9999
-9999 -9999 -9999 -9999 -9999 -9999 -9999 -9999 -9999 -9999 -9999 -9999 -9999 -9999 -9999 -9999 -9999 -9999 70.42899 67.13061 64.52013 62.37448 63.27837 61.2726 62.65168 63.95261 66.69349 68.56435 67.85451 63.21983 57.88708 58.1405 56.91298 60.59844 61.43898 68.03952 68.95774 64.45113 61.25246 65.51542 65.91431 63.47258 59.4003 60.57747 62.2002 58.18324 58.03275 58.99104 65.66228 70.99875 62.63506 62.87632 67.03307 70.85681 72.011 74.83688 78.11162 77.59486 74.9219 75.74279 76.52335 77.51418 77.53606 77.40237 76.39812 74.05592 64.60331 58.9432 55.38246 50.07436 44.60545 42.0851 40.04282 38.38902 35.23854 34.17931 33.03901 32.98775 37.06091 39.06476 41.47537 42.51272 36.08207 33.87247 32.27445 30.02826 31.16858 30.85904 31.28431 30.18653 29.78365 29.70297 29.59171 29.37145 28.66244 28.31631 28.09448 28.05417 28.38172 28.63526 28.86484 29.04179 29.18161 29.01049 28.36477 27.3986 25.77878 25.00698 24.27285 23.58635 22.46068 22.05931 21.78015 21.69769 21.08015 20.01585 19.23303 19.2443 27.20738 30.16698 30.15777 29.33811 29.23462 29.24057 24.68253 23.39296 24.07017 22.31769 20.70644 20.13103 19.55811 19.24766 19.32183 19.67095 20.79789 21.39248 21.89167 22.68958 24.08792 22.4894 20.89179 18.83835 18.53937 18.53184 18.39988 18.73014 18.88463 18.943 19.16103 19.46871 20.46283 21.64723 22.74296 23.87966 25.81953 26.7468 26.2123 25.53275 22.88716 21.74437 21.20133 20.63666 17.27673 15.1168 13.88179 13.17794 15.39772 17.54951 19.58827 20.80056 18.72792 17.69252 16.6222 15.89777 16.72784 17.80577 18.53145 18.48509 17.59456 17.19235 16.61074 15.23918 10.64805 9.491345 11.57976 14.0166 19.55058 21.07582 21.83978 19.93779 12.4767 12.08688 15.40897 18.85084 20.30115 17.9464 15.20372 12.94611 12.02288 12.47241 13.08212 13.72879 15.63654 16.7167 17.73764 18.0989 16.49496 14.86369 13.91588 13.71205 13.97218 14.07682 14.02086 13.74313 12.70197 12.02844 11.36757 10.74356 10 10 10 10 10 10.75622 11.50663 11.24085 10.1307 10.5861 15.65015 20.38694 21.5587 21.43519 21.73441 22.75696 26.69409 -9999 -9999 -9999 -9999 -9999 -9999 -9999 -9999 -9999 -9999 -9999 -9999 -9999 -9999 -9999 -9999 -9999 -9999 -9999 -9999 -9999 -9999 -9999
-9999 -9999 -9999 -9999 -9999 -9999 -9999 -9999 -9999 -9999 -9999 -9999 -9999 -9999 -9999 -9999 -9999 -9999 70.09218 67.53632 65.40273 63.74056 66.51921 65.97744 65.92622 66.66917 69.15012 71.22023 67.57992 62.91152 62.06937 60.28153 58.85465 63.9004 64.75574 71.16875 73.58282 70.17723 64.59208 67.93057 71.09219 67.6659 65.78518 67.35485 63.56848 58.80844 62.89314 64.03717 69.71545 74.10505 71.38402 70.72673 75.03281 77.89654 80.8716 86.13879 90.06554 88.35815 84.95085 87.77322 90.2668 92.95306 95.62862 95.18803 90.45827 83.28152 74.42701 70.42943 63.68785 56.33212 46.80025 44.32372 42.20281 39.39812 35.60236 34.52657 33.71764 34.03352 38.68855 40.47336 43.08958 41.71957 37.57737 38.5313 36.41685 31.93397 36.43337 37.17803 36.33897 34.24723 31.69092 31.18123 30.45887 29.79194 28.92307 28.53999 28.338 28.31289 28.63342 28.87152 29.06656 29.20048 29.14043 28.72524 27.97124 26.98287 25.15829 24.28409 23.43016 22.62198 21.2848 20.79534 20.48305 20.37192 19.59522 19.23066 19.23178 19.23178 24.93827 28.6036 28.67462 27.13334 27.12628 28.13431 28.48732 28.67704 29.82298 27.24034 24.47829 22.20559 19.78307 19.40487 19.11147 19.28221 19.85027 19.89986 19.98142 20.74804 22.97128 23.28543 22.49835 21.07441 19.39617 19.0725 18.65703 18.50473 18.38387 18.53186 18.72684 18.94891 19.47432 19.77242 20.18202 20.96086 22.61694 24.92081 25.89991 25.61913 20.18381 19.21091 18.80835 18.23043 15.38868 14.64608 14.09234 13.5139 14.23144 16.19828 18.19551 19.72478 17.49214 16.37879 15.40641 15.18261 15.91281 16.45819 16.7646 16.81558 16.29688 15.77599 14.94803 13.7429 9.264192 9.144522 9.769396 11.72568 15.23144 17.76622 19.79508 19.12473 12.59376 11.33299 14.01514 17.19352 18.96373 16.64391 14.40551 12.56425 11.2027 11.36541 11.8576 12.40824 13.83002 14.67885 15.72536 16.00174 15.23315 13.98861 13.19133 12.97375 13.34884 13.46697 13.39031 13.06302 11.91412 11.2427 10.62324 10.1222 10 10 10 10 10.07718 11.21467 11.79145 12.07643 12.23911 14.83855 20.40036 21.23433 22.95793 23.46227 24.17323 25.10536 28.15781 30.30335 -9999 -9999 -9999 -9999 -9999 -9999 -9999 -9999 -9999 -9999 -9999 -9999 -9999 -9999 -9999 -9999 -9999 -9999 -9999 -9999 -9999 -9999
-9999 -9999 -9999 -9999 -9999 -9999 -9999 -9999 -9999 -9999 -9999 -9999 -9999 -9999 -9999 -9999 -9999 -9999 69.90422 68.11528 66.50736 64.61768 69.42711 70.11268 69.11815 69.52389 71.83178 71.46925 67.04018 63.94059 66.74513 65.44855 64.43003 69.3281 67.11911 73.37907 77.17184 74.77587 68.55627 70.64307 74.14489 69.14395 71.69027 71.5072 66.30924 63.41619 68.6763 71.51132 73.98754 77.85722 79.91091 80.66759 85.15675 88.33482 93.63481 98.79688 103.2802 101.271 99.32612 101.1065 102.9095 105.231 109.4149 109.0831 103.3323 93.73776 86.61567 84.46609 77.57681 65.45567 48.54711 45.42773 42.22419 39.21156 36.44574 35.42292 34.29667 34.61044 40.12811 42.55942 43.94976 41.74907 40.8715 41.10586 38.27881 33.73392 41.08698 40.47663 38.99213 37.38021 35.32392 34.39152 32.18439 30.29179 29.13417 28.71885 28.533 28.53596 28.88825 29.11129 29.27959 29.37412 29.04031 28.46627 27.63359 26.66118 24.66887 23.70118 22.7357 21.77923 20.13028 19.48198 19.40313 19.36918 19.17752 19.22075 19.23178 19.23178 21.83594 24.77521 25.8534 24.78406 25.21157 27.13365 29.38686 31.17095 30.91319 29.38377 26.31099 23.81498 20.31082 19.70254 19.34597 19.0076 19.33785 19.45866 19.59822 19.79778 21.01542 21.92186 22.62736 22.60324 20.09194 19.58562 19.17792 18.80151 18.21945 18.27516 18.39969 18.49392 18.7946 19.07947 19.3391 19.5683 20.01878 23.15003 25.11921 25.17797 21.26 19.43812 18.67585 17.1144 14.20604 14.45144 15.18064 14.69256 13.02794 14.57685 16.3164 16.95598 15.9869 15.06421 14.27428 14.27255 14.84222 15.18045 15.3668 15.39947 14.9347 14.46032 13.70779 12.54908 9.155173 9.144522 9.28008 9.827156 10.97479 14.04786 16.11856 16.21281 12.23613 11.24597 12.77176 15.15309 15.99932 14.78117 13.26191 11.86979 10.3566 10.36628 10.69409 11.09072 11.94139 12.64622 13.77348 14.0498 13.85141 12.82236 12.20214 12.09876 12.81639 13.01785 12.89977 12.43679 11.07261 10.36263 10.01435 10 10 10 10 10 10.5809 11.64664 12.37497 12.89276 13.75074 15.41747 17.81231 19.53813 21.16468 22.12617 23.43461 24.46552 26.00842 29.32415 -9999 -9999 -9999 -9999 -9999 -9999 -9999 -9999 -9999 -9999 -9999 -9999 -9999 -9999 -9999 -9999 -9999 -9999 -9999 -9999 -9999 -9999
-9999 -9999 -9999 -9999 -9999 -9999 -9999 -9999 -9999 -9999 -9999 -9999 -9999 -9999 -9999 -9999 -9999 -9999 76.12195 74.07912 71.49403 68.34251 68.39931 73.33639 75.07445 75.88474 74.45493 70.02059 70.2066 69.69344 74.65775 76.96796 78.20215 80.46715 76.4257 78.8716 84.8149 84.92506 79.65501 81.81948 81.90685 80.89295 83.15658 80.63084 78.61655 76.12178 81.23385 89.32292 93.39451 97.44547 105.251 108.7286 113.647 117.7954 126.242 138.364 141.7967 135.3449 127.1033 126.9244 129.5539 134.0471 130.2911 118.4137 111.1962 107.6629 104.42 100.4422 88.34292 72.50814 49.62676 46.07057 42.5663 39.64133 41.2812 36.53728 34.73222 35.23813 41.47094 44.23652 45.65773 45.09317 44.0308 41.20667 39.39115 41.1988 41.17649 38.65071 36.49696 34.24138 30.07376 30.77161 30.57374 29.89611 29.15932 28.86632 28.7813 29.00593 29.42283 29.61735 29.7533 29.73989 28.82212 27.99671 27.05847 26.07134 24.03003 22.98285 21.90475 20.76164 19.02216 19.02216 19.02776 19.05818 19.21379 19.27385 19.29646 19.79701 20.99696 21.30583 21.93295 22.64561 24.81129 27.32653 29.93732 30.81063 29.75578 28.81682 27.41766 25.74859 23.05555 21.44765 20.25293 19.76266 19.12294 19.02346 18.96236 18.88539 19.26604 19.47542 19.70221 19.95087 20.86439 20.16712 19.48277 18.8948 18.29825 18.284 18.34075 18.3545 18.18696 18.31264 18.69066 19.07712 20.14389 22.61978 20.79708 19.55116 21.75071 25.12793 24.75301 21.78021 20.71322 21.22608 19.78171 17.72046 14.94315 13.26688 13.44841 13.8018 13.10967 12.30418 11.95063 12.27446 12.82387 13.0161 13.12334 13.1169 12.71735 12.28446 11.64851 10.72587 9.186872 9.211617 9.874044 9.905458 9.76592 9.88945 10.20491 11.08881 10.37602 9.980418 10.02163 10.90068 10.12422 10.06297 10.22777 9.894405 9.149751 9.149751 9.149751 9.1505 9.149751 9.181805 10.34531 10.73948 10.99273 10.0561 10 10.38978 11.59423 12.03425 11.71997 11.06548 10.00042 10 10 10 10 10 10 10.00791 12.26391 13.04807 13.88727 14.71748 15.85259 15.56606 15.35458 16.03515 18.53769 19.53146 20.89529 22.76705 26.97165 28.53832 26.55548 25.91368 -9999 -9999 -9999 -9999 -9999 -9999 -9999 -9999 -9999 -9999 -9999 -9999 -9999 -9999 -9999 -9999 -9999 -9999 -9999 -9999
-9999 -9999 -9999 -9999 -9999 -9999 -9999 -9999 -9999 -9999 -9999 -9999 -9999 -9999 -9999 -9999 -9999 -9999 77.94695 76.32008 73.90949 72.59206 68.34267 72.58028 76.79926 78.74908 76.20174 74.24416 72.05704 70.69725 78.56235 82.56976 85.89246 87.68735 82.30824 84.68945 90.48763 91.14742 89.48459 93.70218 97.16716 97.59879 96.14481 93.12611 88.31693 84.30836 90.06225 99.16042 106.9116 114.227 124.2658 130.1416 132.7023 138.5729 133.466 135.477 136.1699 134.8872 137.6075 142.0693 147.5721 146.5038 125.1427 113.4068 100.7986 91.15544 97.33076 93.36329 83.37978 71.01883 50.82744 47.38843 44.92309 43.58302 39.88352 35.61298 35.13652 35.13195 42.02199 44.77842 46.80771 45.72633 44.36117 44.74722 43.71931 43.95843 41.14478 39.64199 36.72183 34.14979 29.81757 29.64034 29.69873 29.54674 29.0142 28.9636 29.09774 29.32841 29.74066 29.94766 30.07138 29.86718 28.68314 27.75741 26.76698 25.7557 23.72853 22.71688 21.69471 20.62418 19.22168 19.1496 19.02216 19.02996 19.40751 19.48213 19.65121 20.20664 21.00584 21.00584 21.00584 21.00584 24.79482 26.91167 28.71397 29.35766 29.22867 28.69217 27.79557 26.50834 24.14606 22.61596 21.37589 20.31081 19.56325 19.29777 19.05768 18.77823 18.75731 18.90383 19.1538 19.42344 19.98513 19.80371 19.29634 18.74848 18.34886 18.43311 18.52817 18.54921 18.40456 18.3763 18.57994 19.00657 19.99616 20.92854 19.98069 19.17749 21.68938 23.81576 24.75792 24.18353 22.75917 22.63402 21.12779 19.18316 16.80754 15.24131 14.62861 14.41095 13.33714 12.54217 12.04676 12.03263 12.15625 12.21499 12.22512 12.18291 11.82401 11.44528 10.85012 10.02863 9.856468 9.940696 9.810028 9.671762 9.650184 9.733085 9.834657 9.912936 9.874852 9.823466 9.84631 9.906706 9.871318 9.821216 9.927419 9.873514 9.274491 9.181802 9.149751 9.149751 9.149751 9.149751 9.730702 9.939994 10.0028 9.994908 9.998337 10.01104 10.79725 10.93304 10.66587 10.20951 10 10 10 10 10 10 10 10.71198 12.6655 13.4334 14.35558 15.36009 17.27764 18.2077 20.08315 20.39581 20.36921 20.61255 22.32304 24.3943 28.45147 25.95355 24.68832 24.67349 -9999 -9999 -9999 -9999 -9999 -9999 -9999 -9999 -9999 -9999 -9999 -9999 -9999 -9999 -9999 -9999 -9999 -9999 -9999 -9999
-9999 -9999 -9999 -9999 -9999 -9999 -9999 -9999 -9999 -9999 -9999 -9999 -9999 -9999 -9999 -9999 -9999 -9999 80.12093 78.95027 77.86256 74.97105 70.1741 73.13792 78.42649 81.22113 79.46778 77.6205 75.62246 77.1139 82.85 89.36019 93.27616 95.53126 94.40497 96.96343 99.97395 99.5559 102.2971 108.795 114.8951 115.2393 109.604 106.3559 102.8706 96.33495 92.87638 105.2363 119.0244 131.6388 140.1042 142.1661 142.5817 141.1302 127.4658 123.8306 124.7744 127.0146 140.8852 146.8622 150.685 148.2421 120.7763 107.7837 94.37518 82.56721 84.05354 83.02768 77.35881 66.8661 50.91419 47.85704 45.3772 43.29512 37.84846 35.18564 35.13652 36.11316 43.38799 46.10971 46.94339 45.03201 42.40109 40.70837 40.06807 39.39947 38.08812 37.14686 35.58822 33.84483 30.27117 29.51336 29.33674 29.16602 29.05395 29.20201 29.40676 29.64074 31.08152 31.91365 31.30683 29.9927 28.55356 27.51081 26.45435 25.41204 23.39935 22.42703 21.46837 20.52268 19.89886 19.84984 19.94724 19.45218 19.8002 19.7684 19.90294 20.28641 20.90379 21.00584 21.00584 21.00584 24.16289 25.92191 27.177 27.88348 28.4246 28.27472 27.87101 27.16655 25.14333 23.7236 22.58611 21.59562 20.0359 19.74036 19.50294 19.2799 18.77199 18.52182 18.67111 18.87763 19.20549 19.1218 18.85118 18.50035 18.44313 18.66069 18.79372 18.82691 18.64615 18.47524 18.51315 18.91859 19.39517 19.4457 19.30665 18.87339 21.35248 22.77813 24.0615 25.17215 23.81967 23.27572 23.12787 21.73618 18.43542 16.95632 16.15599 15.51429 13.84671 13.06129 12.4164 12.11314 11.81298 11.6944 11.57841 11.43842 11.08721 10.77096 10.31443 10.01716 9.771282 9.678386 9.519838 9.451626 9.47812 9.540103 9.632427 9.70038 9.700842 9.69112 9.706315 9.727738 9.695452 9.649165 9.6177 9.664978 9.750565 9.801963 9.816779 9.86058 9.878029 9.918811 9.935818 9.934275 9.924757 9.929917 9.942331 9.962146 10.02999 10.01014 9.991272 9.995036 9.999752 10 10 10 10 10 10 10.44055 12.59427 13.56204 14.62123 15.80348 19.07655 20.32938 21.14762 21.90282 22.29886 22.86511 24.19728 25.84373 27.47444 24.92035 23.73771 23.62731 25.44643 -9999 -9999 -9999 -9999 -9999 -9999 -9999 -9999 -9999 -9999 -9999 -9999 -9999 -9999 -9999 -9999 -9999 -9999 -9999
-9999 -9999 -9999 -9999 -9999 -9999 -9999 -9999 -9999 -9999 -9999 -9999 -9999 -9999 -9999 -9999 -9999 -9999 85.79825 84.17023 82.12333 79.50898 77.09771 77.38859 80.31026 83.65661 81.92758 80.52102 82.14687 86.95502 91.40976 95.06862 99.90771 104.0761 107.5717 113.393 114.1308 111.9967 118.9523 132.4161 139.1652 133.2771 124.584 121.8941 115.5247 108.6945 96.89213 107.2085 124.4727 136.4856 140.0631 138.231 137.7509 132.6081 119.7273 113.737 113.9168 118.1254 133.3773 138.4724 138.4279 134.6629 116.9063 102.3461 90.71149 78.87188 75.217 74.92171 69.8877 62.01532 50.35322 47.18686 44.5012 41.73463 37.51326 36.44225 37.77718 40.5222 45.73286 47.39835 45.28901 42.87836 39.28493 37.55128 35.71455 34.69232 34.39601 34.02965 32.96522 31.52165 29.77581 29.41817 29.11924 29.0587 29.34641 29.5204 29.7056 29.92632 33.90207 33.15863 32.64884 30.65859 28.41884 27.23032 26.09639 25.0196 23.02876 22.10138 21.21255 20.35599 19.83599 19.68329 19.79082 19.92037 19.98642 19.96494 20.00388 20.23263 20.77697 20.99361 21.00584 21.00584 23.394 24.84436 25.88846 26.58122 27.40343 27.6097 27.62326 27.49788 26.09554 24.83329 23.80466 22.84289 21.11559 20.42767 20.02472 19.79711 19.2925 18.9593 18.66731 18.44702 18.543 18.43322 18.28592 18.3222 18.73427 18.98573 19.139 19.17532 18.92862 18.61635 18.39368 18.59321 18.69158 18.63024 18.52581 18.37455 20.78557 21.69028 22.57298 22.97062 24.05075 22.31124 20.5556 21.90354 19.58987 18.37781 17.41954 16.3139 14.34264 13.50371 12.76002 12.2614 11.638 11.38284 11.14186 10.915 10.4731 10.23178 9.964823 10.27017 9.701463 9.398819 9.238988 9.213454 9.265952 9.330672 9.421394 9.488517 9.530458 9.534007 9.549333 9.55975 9.512074 9.448836 9.36122 9.306891 9.398714 9.449957 9.500237 9.560152 9.739205 9.794966 9.82891 9.833772 9.836136 9.842995 9.854224 9.868053 9.904726 9.92233 9.939426 9.955381 9.982695 9.992848 9.998989 10 10 10 10 10 12.01472 13.50068 14.7638 15.95517 19.22767 19.79171 20.52973 22.02967 23.45492 23.92056 24.8226 25.81232 26.36245 24.43746 22.62089 22.87673 23.9208 25.46294 26.19095 -9999 -9999 -9999 -9999 -9999 -9999 -9999 -9999 -9999 -9999 -9999 -9999 -9999 -9999 -9999 -9999 -9999
-9999 -9999 -9999 -9999 -9999 -9999 -9999 -9999 -9999 -9999 -9999 -9999 -9999 -9999 -9999 -9999 -9999 -9999 98.2952 100.4377 93.43314 93.71881 96.33812 93.06731 92.77074 92.40577 90.2107 99.85386 109.0393 117.7503 123.8158 122.4932 119.9846 124.6683 142.8029 152.6421 148.6084 142.8335 153.4255 163.7506 168.8519 165.4361 151.1895 140.1185 133.6647 126.5325 114.7579 114.1267 112.754 109.9594 114.4487 114.9492 114.3638 113.2828 102.1872 93.52713 93.01615 99.51983 113.7825 113.5565 113.0033 110.2904 101.2875 95.14334 85.92781 75.16603 60.18076 59.29441 57.6918 55.99535 47.54183 43.86982 41.41455 40.09098 39.75331 41.4758 43.57275 45.6234 47.27071 45.29019 41.81176 39.35606 35.40169 32.06973 30.0257 30.0257 29.99129 29.86048 29.78378 29.6536 29.28348 29.27579 29.42875 29.68132 31.19538 32.22347 33.70496 35.65324 29.09389 29.58281 30.59646 30.82266 27.82167 26.30814 25.03 24.00583 22.54799 21.83555 21.09562 20.4194 19.75674 19.56627 19.40255 19.47 19.54294 19.60861 19.70431 19.88492 20.34246 20.43457 20.51523 20.64473 22.22834 23.103 23.77219 24.29742 25.07773 25.43439 25.84392 26.41236 26.98314 26.315 25.63869 25.02593 23.4315 22.56282 21.64401 20.86921 20.21722 19.98062 19.59736 19.05673 18.74371 19.01044 19.37414 19.72089 19.9368 20.05026 20.06071 20.00511 19.47924 18.95586 18.45259 18.18317 17.88875 17.73597 17.51044 17.31642 17.32446 18.79944 19.37207 19.61601 22.29401 22.46639 20.04843 19.16945 20.08856 19.73418 18.33699 17.07041 15.00767 14.12413 13.33044 12.64043 11.57519 11.13625 10.72659 10.34106 9.645339 9.441905 9.44995 9.751676 9.226992 8.746626 8.549986 8.612915 8.785322 8.879337 8.96069 9.036413 9.184345 9.213099 9.249151 9.266178 9.196926 9.097202 8.895918 8.622136 8.662276 8.736158 8.873643 9.070848 9.390676 9.488246 9.580098 9.600401 9.640471 9.652868 9.67454 9.701643 9.762667 9.794624 9.826073 9.855776 9.909638 9.934324 9.957254 9.977483 9.999931 10 10 10 12.71737 14.41083 15.81332 16.81861 18.63727 19.91997 21.31686 22.73343 23.29168 22.5036 22.19048 23.26187 21.35293 19.02135 20.17792 24.73217 24.15465 20.05198 22.27296 24.97373 -9999 -9999 -9999 -9999 -9999 -9999 -9999 -9999 -9999 -9999 -9999 -9999 -9999 -9999 -9999 -9999
-9999 -9999 -9999 -9999 -9999 -9999 -9999 -9999 -9999 -9999 -9999 -9999 -9999 -9999 -9999 -9999 -9999 -9999 99.86328 107.2286 105.5337 109.1171 110.2208 108.1475 101.7032 97.21117 100.8519 113.219 123.0972 132.0587 145.2012 142.9372 135.989 134.593 158.3538 175.5599 170.0274 167.0816 173.143 175.5744 170.8054 162.1847 141.3601 133.0902 127.4416 122.8626 115.3934 112.1454 105.9022 99.16449 100.4689 101.625 101.3597 100.3584 91.03097 87.85362 87.54598 92.14182 99.31659 98.7299 97.60443 96.01522 91.48461 88.90641 83.5466 74.78197 58.91594 56.06658 53.38342 52.31326 46.81912 42.04599 39.94782 39.94782 40.32759 43.69184 46.31082 48.05954 47.36892 45.01443 41.97302 39.60916 36.99831 33.37536 30.46517 30.03122 30.30049 29.81614 29.66291 29.54634 29.37398 29.5257 29.70606 29.94131 34.62104 35.16679 35.18753 34.42179 27.82212 26.40112 25.34958 27.95767 26.36889 25.20777 24.0606 23.4171 22.63503 22.24957 21.85963 21.39473 19.90846 19.67299 19.45667 19.40586 19.36833 19.42277 19.53481 19.70143 20.01473 20.14882 20.2482 20.45103 21.82796 22.45897 22.90743 23.25748 23.80679 24.08704 24.46872 25.00382 25.68912 25.7176 25.51828 25.34366 24.47075 23.26075 22.07864 21.15634 20.52979 20.73214 20.03547 19.41203 19.08376 19.5358 19.96261 20.16437 20.32668 20.34221 20.2984 20.19001 19.69653 19.00491 18.44614 18.07673 17.65217 17.49647 17.33065 17.26836 17.45005 18.14928 18.73648 19.32424 20.31769 21.17904 21.43328 19.55657 19.01272 19.04518 18.08519 17.03858 15.16348 14.31746 13.53782 12.83381 11.65078 11.14891 10.68395 10.24737 9.453294 9.149711 9.037285 9.012055 8.124559 8.123172 8.10117 8.113166 8.558291 8.619637 8.725327 8.848775 9.075496 9.146908 9.186896 9.2 9.114803 9.009993 8.712464 8.228211 8.294642 8.399081 8.650148 8.904967 9.257496 9.36336 9.466361 9.490077 9.542574 9.565005 9.594333 9.628253 9.701661 9.738857 9.775373 9.810055 9.872837 9.901476 9.928364 9.953353 9.993947 9.999994 10 10.03057 13.91066 16.02129 18.18693 19.84 20.60527 22.17651 22.91959 23.15101 22.34983 20.72979 20.05804 21.12488 19.02135 19.02135 21.34722 25.49349 23.98556 19.72723 19.72723 21.45973 26.13672 -9999 -9999 -9999 -9999 -9999 -9999 -9999 -9999 -9999 -9999 -9999 -9999 -9999 -9999 -9999
-9999 -9999 -9999 -9999 -9999 -9999 -9999 -9999 -9999 -9999 -9999 -9999 -9999 -9999 -9999 -9999 -9999 -9999 105.2815 115.575 121.8602 124.3595 126.3308 123.282 115.3559 104.6474 111.2282 123.7564 135.0046 146.9197 165.5824 161.8428 150.2053 146.6026 179.7052 195.286 196.9174 194.7102 181.6663 170.3655 162.3429 151.3315 130.9368 122.6881 116.507 112.6763 107.4029 103.2606 97.88042 89.49729 88.72202 89.47908 89.25966 88.63506 85.60883 83.52776 81.59161 84.04842 89.99538 89.76149 88.56253 86.287 84.64274 84.4511 82.55633 75.07222 59.77801 55.96399 51.95871 48.88905 46.08027 42.60041 39.94782 39.94782 40.44537 46.2113 49.42152 50.42698 47.45863 45.42812 43.77739 41.32519 40.49028 38.76687 33.48139 30.93612 31.15767 29.87327 29.62254 29.58536 29.64184 29.7852 29.94322 31.67157 37.11723 35.89752 35.14907 33.47675 27.30098 23.62899 22.80542 24.26518 24.18626 23.68822 22.67789 22.78765 23.2293 23.37058 23.2314 22.65879 20.0285 19.78896 19.55215 19.39579 19.21418 19.22679 19.34977 19.50147 19.78482 19.92296 20.00825 20.18341 21.57919 22.03248 22.18627 22.2654 22.43373 22.5994 23.00294 23.54199 24.25661 24.59855 24.79412 24.95869 25.05311 23.50727 22.15752 21.11037 20.64526 21.23 20.33517 19.59989 19.70224 20.06639 20.24714 20.44352 20.67343 20.6414 20.54497 20.37309 19.89833 19.05021 18.37211 17.9588 17.48867 17.34409 17.22518 17.21124 17.62288 18.00615 18.41247 18.82742 19.56436 19.82078 21.07571 19.74418 18.7441 18.59298 17.84255 16.9426 15.23747 14.44381 13.69061 12.99582 11.77798 11.24208 10.74104 10.26907 9.379999 9.004628 9 9 8.304525 8.040453 8.040453 8.040453 8.116021 8.405513 8.670458 8.902666 9.183207 9.186745 9.196384 9.190317 9.11935 9.045309 8.633126 8.202401 8.196768 8.200075 8.522847 8.791546 9.148888 9.256308 9.362659 9.387191 9.451108 9.482987 9.521246 9.562836 9.64995 9.692119 9.732466 9.770334 9.839089 9.871062 9.901289 9.929434 9.979463 9.997451 10 10.65935 14.35353 16.37047 18.5142 20.42853 22.151 20.89877 20.72995 22.18245 22.00737 20.25677 19.02765 19.20552 19.57794 19.02135 23.32787 25.97714 23.01933 19.74817 19.7369 20.46869 25.99634 -9999 -9999 -9999 -9999 -9999 -9999 -9999 -9999 -9999 -9999 -9999 -9999 -9999 -9999 -9999
-9999 -9999 -9999 -9999 -9999 -9999 -9999 -9999 -9999 -9999 -9999 -9999 -9999 -9999 -9999 -9999 -9999 -9999 119.6844 122.8194 133.0021 140.8171 142.8145 137.5421 125.7963 114.5441 117.8287 129.9978 144.0405 163.3601 185.0422 175.9191 164.8242 166.6677 196.3776 205.6309 209.0199 200.9538 172.9118 162.0404 151.3693 139.3302 119.808 113.52 107.1229 100.6401 92.09892 90.68095 87.58183 84.32034 81.03187 80.95391 80.80116 81.1245 80.56372 79.69201 78.50987 79.01355 80.88705 81.12151 80.39819 79.41383 78.83142 79.11076 80.57858 75.1818 61.2261 57.0954 54.04565 50.90528 43.08076 40.82041 39.94782 41.18571 42.3241 49.64127 51.52942 50.6906 47.02726 45.25344 44.23388 43.60528 40.8947 35.86749 32.80844 30.99841 29.94711 29.75174 29.69748 29.76447 29.88774 30.77078 33.37609 35.58289 34.93736 32.93836 32.98811 32.68608 26.34548 22.80168 22.81275 24.33418 24.78641 23.99637 22.69936 23.24442 24.82789 25.17772 24.91298 24.05101 20.83307 19.90856 19.67133 19.43309 19.06897 19.01863 19.13229 19.25147 19.51508 19.65799 19.80944 19.966 21.32229 21.97115 21.6289 21.31946 20.87472 21.01367 21.46073 22.12339 22.87261 23.23514 23.5386 23.80594 23.86764 22.96001 21.78414 20.68531 20.14672 20.42117 20.19539 19.49623 20.11955 20.27124 20.48162 20.69754 20.77658 20.90358 20.75981 20.48691 20.01103 19.0904 18.19335 17.77083 17.39383 17.23814 17.11007 17.11296 17.49916 17.79649 18.12851 18.47793 19.16633 19.48778 19.88754 19.59048 18.50529 18.23212 17.62651 16.83639 15.26135 14.51303 13.79277 13.11928 11.92445 11.38238 10.86955 10.38144 9.428936 9.00466 9 9.05169 10.28074 10.42628 10.07141 8.040453 8.14872 8.576597 8.890221 9.13464 9.353869 9.31264 9.275397 9.248452 9.173296 9.084653 8.833931 8.449288 8.196768 8.234838 8.488137 8.725763 9.060432 9.16445 9.268075 9.291105 9.366715 9.410388 9.462523 9.516045 9.615501 9.660707 9.703026 9.742146 9.812508 9.844954 9.876556 9.907384 9.962511 9.987019 9.999963 10.97362 14.44339 16.27459 18.06546 19.34904 20.76125 18.68305 19.46729 21.24384 22.05253 20.6911 19.43632 18.20271 19.22851 20.95779 24.31852 25.80828 22.84562 19.88491 19.7416 21.45352 25.78616 25.64117 -9999 -9999 -9999 -9999 -9999 -9999 -9999 -9999 -9999 -9999 -9999 -9999 -9999 -9999
